ply
format ascii 1.0
element vertex 375
property float x
property float y
property float z
property float nx
property float ny
property float nz
end_header
-18.5576000213623047 -3.18689990043640137 1.83299994468688965 0.407154381275177002 0.913224577903747559 -0.015690220519900322
-17.5636997222900391 -13.1468000411987305 5.2555999755859375 0.689864635467529297 -0.282863497734069824 0.666389524936676025
-15.9088001251220703 -11.1672000885009766 5.50509977340698242 -0.296915143728256226 -0.717694938182830811 0.629885196685791016
-21.5436992645263672 -4.44560003280639648 5.56960010528564453 0.000881336804013699293 0.336563318967819214 0.941660404205322266
-14.4970998764038086 -12.448699951171875 3.00900006294250488 0.236264035105705261 0.959768712520599365 0.1517343670129776
-18.6453990936279297 -8.15439987182617188 6.37720012664794922 -0.146098285913467407 0.0537193156778812408 0.987810492515563965
-18.162200927734375 -3.69574999809265137 4.24084997177124023 -0.309494435787200928 -0.839066922664642334 -0.447414696216583252
-17.6415996551513672 -6.08510017395019531 6.20160007476806641 -0.013731696642935276 0.375351518392562866 0.926780819892883301
-15.1204004287719727 -4.85780000686645508 4.38290023803710938 -0.35079309344291687 -0.86879420280456543 -0.34948652982711792
-17.5937995910644531 -10.5978002548217773 6.04330015182495117 0.300538808107376099 -0.19521959125995636 0.933576881885528564
-18.0785007476806641 -7.84940004348754883 6.40030002593994141 -0.127106279134750366 0.028073187917470932 0.991491734981536865
-18.1860008239746094 -10.3207998275756836 6.28800010681152344 0.250592321157455444 -0.0972916185855865479 0.963191509246826172
-12.1590995788574219 -5.96859979629516602 4.25260019302368164 0.374495983123779297 0.914747297763824463 0.151625126600265503
-16.7763996124267578 -7.43450021743774414 6.59240007400512695 -0.124010272324085236 0.113145813345909119 0.985809028148651123
-21.0730991363525391 -2.01699995994567871 2.39050006866455078 -0.384420692920684814 -0.910340487957000732 -0.153300270438194275
-21.4375 -1.86269998550415039 1.73759996891021729 -0.381796807050704956 -0.910795629024505615 -0.157106831669807434
-11.8947000503540039 -6.71350002288818359 5.73750019073486328 0.235783472657203674 0.844402492046356201 0.481030702590942383
-13.0944004058837891 -10.3892002105712891 0.36880001425743103 0.0815035402774810791 -0.338179975748062134 -0.937545478343963623
-17.3465003967285156 -3.66700005531311035 2.31699991226196289 0.387023776769638062 0.922042787075042725 0.00704923085868358612
-20.3318996429443359 -4.73489999771118164 5.67740011215209961 0.0104397758841514587 0.400954365730285645 0.91603851318359375
-20.7036991119384766 -9.70409965515136719 5.97910022735595703 -0.412102341651916504 0.207608789205551147 0.887169778347015381
-19.6707000732421875 -10.8685998916625977 6.39309978485107422 0.122891455888748169 -0.049952235072851181 -0.99116218090057373
-20.5529994964599609 -5.86619997024536133 5.96299982070922852 0.103696249425411224 -0.110107697546482086 -0.988495528697967529
-17.9584503173828125 -7.41610002517700195 6.42530012130737305 -0.132365033030509949 0.0637161806225776672 0.9891510009765625
-21.3369007110595703 -10.0753002166748047 5.7024998664855957 -0.552605986595153809 0.214552253484725952 0.805353283882141113
-20.6126003265380859 -5.15829992294311523 5.82380008697509766 -0.0723933354020118713 0.198204994201660156 0.977483510971069336
-18.4918003082275391 -7.12039995193481445 6.33459997177124023 -0.146863237023353577 0.100333400070667267 0.984055101871490479
-19.1151008605957031 -4.64895009994506836 5.5531001091003418 0.0933920145034790039 0.571630656719207764 0.81517869234085083
-14.5927000045776367 -8.06869983673095703 6.90799999237060547 0.0792871788144111633 -0.199814513325691223 -0.97662055492401123
-18.3859996795654297 -4.14039993286132812 4.97249984741210938 -0.184865966439247131 -0.729503631591796875 -0.658520340919494629
-17.3630008697509766 -11.108799934387207 5.80259990692138672 -0.423499375581741333 0.262380629777908325 -0.867066740989685059
-13.9413995742797852 -7.51520013809204102 6.75 0.0498449839651584625 0.444745004177093506 0.894269168376922607
-17.2985992431640625 -14.4689998626708984 3.86800003051757812 0.865240633487701416 -0.395641863346099854 0.307938635349273682
-20.9860992431640625 -8.04905033111572266 5.4230499267578125 -0.46542888879776001 -0.138440102338790894 0.874191224575042725
-19.8332996368408203 -7.00899982452392578 6.09060001373291016 -0.226519837975502014 -0.0210735965520143509 0.97377854585647583
-20.9216995239257812 -4.5840001106262207 5.62109994888305664 -0.00562841305509209633 -0.386287778615951538 -0.922361135482788086
-15.6035995483398438 -11.8485498428344727 4.60134983062744141 0.271451354026794434 0.826964080333709717 -0.49238663911819458
-19.1597995758056641 -3.18120002746582031 3.91070008277893066 -0.285913169384002686 -0.849525153636932373 -0.443351626396179199
-17.0041999816894531 -3.98869991302490234 3.94950008392333984 -0.33973771333694458 -0.885351359844207764 -0.317381799221038818
-17.7530994415283203 -5.19729995727539062 5.75059986114501953 0.0792917683720588684 0.513733386993408203 0.854277908802032471
-18.6254005432128906 -3.12050008773803711 2.00224995613098145 0.404975533485412598 0.914315402507781982 -0.00470804376527667046
-17.9750003814697266 -6.73950004577636719 6.36280012130737305 0.0681231990456581116 -0.176850616931915283 -0.981877326965332031
-19.3756008148193359 -2.75029993057250977 2.34840011596679688 0.398030936717987061 0.915746212005615234 0.0545916110277175903
-18.0788993835449219 -4.50040006637573242 5.25489997863769531 0.149606257677078247 0.683883786201477051 0.714087486267089844
-16.2926006317138672 -10.88385009765625 5.57205009460449219 -0.196853086352348328 -0.654250383377075195 0.730209052562713623
-19.8404998779296875 -3.39059996604919434 4.59409999847412109 -0.209481194615364075 -0.771294951438903809 -0.601017236709594727
-20.2152996063232422 -2.38280010223388672 2.20939993858337402 0.404292315244674683 0.91249239444732666 0.0624925754964351654
-20.9409008026123047 -2.5801999568939209 3.94390010833740234 0.276864498853683472 0.79767841100692749 0.535775303840637207
-22.2579994201660156 -9.77569961547851562 4.59299993515014648 0.796535849571228027 -0.294768929481506348 -0.527865409851074219
-18.2745990753173828 -4.95599985122680664 5.65360021591186523 0.0900646820664405823 0.554867386817932129 0.82704925537109375
-23.5925998687744141 -7.26749992370605469 4.72370004653930664 -0.362405180931091309 -0.556337833404541016 0.74776381254196167
-14.9697999954223633 -9.62329959869384766 6.83459997177124023 -0.251413732767105103 -0.209166467189788818 0.945008218288421631
-18.1375999450683594 -4.13110017776489258 4.87599992752075195 -0.258324503898620605 -0.749873697757720947 -0.609063088893890381
-12.4745998382568359 -9.79010009765625 0.28200000524520874 0.154471531510353088 -0.12456221878528595 -0.980113685131072998
-14.2470998764038086 -6.23470020294189453 5.95499992370605469 0.159742265939712524 0.660591065883636475 0.733554244041442871
-21.747100830078125 -2.70329999923706055 4.44070005416870117 0.177855834364891052 0.734129428863525391 0.65530240535736084
-22.4869003295898438 -9.05830001831054688 3.45490002632141113 0.745543241500854492 0.151759043335914612 -0.648948729038238525
-13.4785995483398438 -5.39979982376098633 2.73340010643005371 0.397348225116729736 0.917545914649963379 0.0149615118280053139
-18.9834003448486328 -12.9336004257202148 6.18720006942749023 0.325214803218841553 -0.110639683902263641 0.939145445823669434
-20.2385997772216797 -6.67309999465942383 6.0345001220703125 -0.179596647620201111 -0.0312350429594516754 0.983244359493255615
-21.3419990539550781 -3.26869988441467285 4.87890005111694336 0.13887430727481842 0.660577237606048584 0.737801909446716309
-19.4195995330810547 -11.7828998565673828 6.38520002365112305 0.0574103854596614838 -0.0241227038204669952 0.998059213161468506
-19.1254005432128906 -4.96210002899169922 5.73799991607666016 -0.0576332919299602509 -0.461707651615142822 -0.885157883167266846
-23.3190994262695312 -11.8114995956420898 4.27610015869140625 0.813505470752716064 -0.321666151285171509 -0.484499424695968628
-20.189300537109375 -11.5234003067016602 6.36959981918334961 -0.141402885317802429 0.0543782077729701996 0.98845750093460083
-18.3708000183105469 -3.74449992179870605 4.44610023498535156 -0.27824363112449646 -0.798576772212982178 -0.533718645572662354
-11.4284000396728516 -6.24860000610351562 4.11320018768310547 0.466620504856109619 0.881265819072723389 0.0750721916556358337
-21.2637996673583984 -1.99140000343322754 2.74580001831054688 -0.353093743324279785 -0.912895798683166504 -0.204807400703430176
-13.6808004379272461 -5.26669979095458984 3.76160001754760742 -0.390075415372848511 -0.910945117473602295 -0.134239181876182556
-13.2517995834350586 -9.80099964141845703 0.203700006008148193 -0.0957148000597953796 0.182552933692932129 0.978525996208190918
-18.3344993591308594 -4.40670013427734375 5.2284998893737793 0.143381595611572266 0.682295858860015869 0.716877996921539307
-13.0279998779296875 -8.85099983215332031 0.170300006866455078 -0.175836130976676941 -0.0490029454231262207 0.983199059963226318
-17.8404006958007812 -12.3599004745483398 5.7593998908996582 -0.489102154970169067 0.226733773946762085 -0.842241585254669189
-21.6254997253417969 -11.9457998275756836 6.00780010223388672 0.421765506267547607 -0.163157477974891663 -0.89190441370010376
-22.2427005767822266 -7.17049980163574219 5.36339998245239258 0.29073527455329895 0.354895979166030884 -0.888550400733947754
-17.9132003784179688 -10.0556001663208008 6.24580001831054688 0.257435530424118042 -0.153714805841445923 0.953990936279296875
-21.4134998321533203 -1.85909998416900635 2.12109994888305664 -0.384420692920684814 -0.910340487957000732 -0.153300270438194275
-20.6240997314453125 -13.5629997253417969 6.40059995651245117 0.0330786406993865967 0.0223550796508789062 -0.999202728271484375
-13.7742500305175781 -9.38535022735595703 0.0833000019192695618 0.0814640820026397705 -0.0839276015758514404 -0.993136346340179443
-14.5198001861572266 -9.29189968109130859 6.99340009689331055 -0.213827148079872131 -0.0989729911088943481 0.971844792366027832
-17.2567996978759766 -7.48859977722167969 6.53730010986328125 -0.144143536686897278 0.0717487931251525879 0.986952245235443115
-20.9181499481201172 -12.6528501510620117 6.33300018310546875 -0.198160052299499512 0.0864251852035522461 0.976352035999298096
-20.8388004302978516 -2.66000008583068848 4.02139997482299805 -0.261329829692840576 -0.796242177486419678 -0.545623600482940674
-23.4904994964599609 -7.42119979858398438 4.65430021286010742 -0.376396328210830688 -0.602632284164428711 0.703676164150238037
-19.5011005401611328 -9.08819961547851562 6.30649995803833008 -0.234402373433113098 0.0773916766047477722 0.969054222106933594
-14.7486000061035156 -7.57810020446777344 6.76849985122680664 -0.0287671741098165512 0.310526251792907715 0.950129389762878418
-20.1746006011962891 -2.40619993209838867 2.08509993553161621 0.404292315244674683 0.91249239444732666 0.0624925754964351654
-23.9111003875732422 -7.30849981307983398 4.52320003509521484 -0.383336275815963745 -0.586960077285766602 0.713113725185394287
-12.9441995620727539 -6.10949993133544922 5.34619998931884766 -0.270645439624786377 -0.785030961036682129 -0.557205021381378174
-21.2028007507324219 -3.83049988746643066 5.25950002670288086 0.0807116404175758362 0.507227897644042969 0.858024179935455322
-15.3487997055053711 -11.862299919128418 4.88719987869262695 -0.417562782764434814 -0.808282434940338135 0.415115416049957275
-21.0919990539550781 -3.64840006828308105 5.12690019607543945 0.108893640339374542 0.522980809211730957 0.845359861850738525
-15.1766996383666992 -11.1674995422363281 5.96390008926391602 -0.403436988592147827 -0.632405281066894531 0.661288261413574219
-20.4675998687744141 -11.3262996673583984 6.30980014801025391 -0.171884536743164062 0.0760454535484313965 0.982177555561065674
-16.6781997680664062 -13.3802995681762695 3.07710003852844238 0.908422946929931641 -0.39986833930015564 0.121955238282680511
-22.4127006530761719 -3.26399993896484375 5.033599853515625 -0.044122643768787384 -0.555962920188903809 -0.830035209655761719
-22.4314994812011719 -5.59329986572265625 5.66930007934570312 -0.180410891771316528 -0.0205865614116191864 0.983375847339630127
-17.8616008758544922 -12.8871002197265625 5.61320018768310547 0.5915718674659729 -0.264006257057189941 0.761802732944488525
-20.9820499420166016 -8.99370002746582031 5.61719989776611328 0.56659996509552002 -0.235242769122123718 -0.7896994948387146
-15.5759000778198242 -4.44469976425170898 3.4981999397277832 -0.370155811309814453 -0.918841838836669922 -0.13680054247379303
-20.1641502380371094 -8.01830005645751953 5.8717498779296875 -0.407904714345932007 0.037291746586561203 0.912262618541717529
-18.9652004241943359 -3.41459989547729492 4.22590017318725586 -0.263646572828292847 -0.817219436168670654 -0.512486934661865234
-14.7622003555297852 -8.78999996185302734 6.96430015563964844 0.186060920357704163 -0.0118929632008075714 -0.982466220855712891
-17.6289997100830078 -5.71700000762939453 6.03970003128051758 0.01837117038667202 0.426421552896499634 0.904337942600250244
-13.4590997695922852 -5.42770004272460938 4.16489982604980469 0.365308374166488647 0.899460732936859131 0.239833608269691467
-22.6025009155273438 -11.3835000991821289 5.08484983444213867 0.751753807067871094 -0.279581248760223389 -0.597244083881378174
-17.2360000610351562 -3.68470001220703125 2.77349996566772461 -0.386673092842102051 -0.916203081607818604 -0.105146810412406921
-12.9717998504638672 -8.56980037689208984 0.209600001573562622 0.213111862540245056 0.140963271260261536 -0.966805398464202881
-16.1480998992919922 -12.1564998626708984 3.5597999095916748 0.668955147266387939 -0.722995281219482422 0.172559678554534912
-17.0275993347167969 -8.72949981689453125 6.48579978942871094 -0.178409725427627563 -0.195012614130973816 0.964437663555145264
-14.1431999206542969 -10.9871997833251953 6.59130001068115234 0.318199187517166138 0.48410719633102417 -0.815100908279418945
-18.578399658203125 -3.11859989166259766 2.1819000244140625 0.406881004571914673 0.91347116231918335 0.00427702907472848892
-18.8631000518798828 -9.92300033569335938 6.40000009536743164 0.0452518239617347717 0.00722033623605966568 0.998949527740478516
-15.9762001037597656 -10.6190004348754883 5.99504995346069336 -0.323341965675354004 -0.582470834255218506 0.745773255825042725
-17.4333000183105469 -6.58820009231567383 6.37020015716552734 -0.0459539704024791718 0.213601604104042053 0.975839436054229736
-20.2714996337890625 -2.67600011825561523 3.68420004844665527 0.314210593700408936 0.878112077713012695 0.360819697380065918
-20.5361995697021484 -2.56389999389648438 3.64709997177124023 -0.305204331874847412 -0.870979011058807373 -0.385027050971984863
-15.5875997543334961 -5.37300014495849609 5.45370006561279297 -0.19968964159488678 -0.727507829666137695 -0.65639650821685791
-17.7269001007080078 -8.91390037536621094 6.32130002975463867 -0.0216862484812736511 -0.115635357797145844 0.993054986000061035
-22.6067008972167969 -11.1357002258300781 4.95200014114379883 0.780999422073364258 -0.326617240905761719 -0.532316744327545166
-21.4395008087158203 -5.65250015258789062 5.83039999008178711 0.13608907163143158 -0.0711105093359947205 -0.988141238689422607
-11.3235998153686523 -6.97639989852905273 1.75699996948242188 -0.519487977027893066 -0.545330405235290527 0.657835066318511963
-16.4743003845214844 -12.8882999420166016 3.23300004005432129 0.909866631031036377 -0.385742455720901489 0.152792066335678101
-16.5807991027832031 -8.62520027160644531 6.61649990081787109 -0.224710240960121155 -0.15669916570186615 0.961743533611297607
-20.4501991271972656 -8.90569972991943359 5.92969989776611328 -0.471156418323516846 0.192202404141426086 0.860854148864746094
-19.4941997528076172 -12.9736995697021484 6.31939983367919922 0.224809885025024414 -0.108499735593795776 0.968343079090118408
-22.5139007568359375 -4.02400016784667969 5.40670013427734375 0.0416055284440517426 -0.351695448160171509 -0.935189425945281982
-17.3008003234863281 -10.6852998733520508 5.87769985198974609 0.338350385427474976 -0.258056104183197021 0.904945313930511475
-15.5186004638671875 -10.214900016784668 6.45069980621337891 -0.319635331630706787 -0.44094395637512207 0.838690459728240967
-12.9744997024536133 -6.0625 -2.17549991607666016 0.835238873958587646 -0.268651694059371948 -0.479793965816497803
-22.2856998443603516 -7.3685002326965332 5.24919986724853516 -0.351005584001541138 -0.47493395209312439 0.806989967823028564
-11.9394502639770508 -8.44684982299804688 0.507149994373321533 0.283256113529205322 0.273362189531326294 -0.919260084629058838
-14.4189996719360352 -9.98939990997314453 6.89690017700195312 -0.23736630380153656 -0.20634065568447113 0.949252724647521973
-17.7022991180419922 -3.68420004844665527 3.83389997482299805 -0.301739394664764404 -0.889656424522399902 -0.342731326818466187
-16.7886009216308594 -4.21320009231567383 4.29979991912841797 -0.289110571146011353 -0.843905448913574219 -0.451927751302719116
-18.0680999755859375 -3.38730001449584961 1.97899997234344482 0.389183253049850464 0.921073675155639648 0.0126351751387119293
-18.4671993255615234 -3.72600007057189941 4.46579980850219727 -0.282582521438598633 -0.798109710216522217 -0.532135367393493652
-16.4395008087158203 -11.5180997848510742 4.9047999382019043 0.140678167343139648 -0.724756240844726562 0.674490988254547119
-16.6201992034912109 -12.9385995864868164 3.84409999847412109 0.865877628326416016 -0.461382687091827393 0.193344101309776306
-20.5722999572753906 -3.77180004119873047 5.14069986343383789 0.144394204020500183 0.568678498268127441 0.80978703498840332
-14.0101003646850586 -12.3170003890991211 2.14249992370605469 -0.0271721389144659042 0.893122196197509766 0.448992669582366943
-23.0499992370605469 -7.87960004806518555 4.48250007629394531 -0.399459630250930786 -0.697680175304412842 0.59470522403717041
-12.1336002349853516 -5.99860000610351562 4.34560012817382812 -0.353754222393035889 -0.92193835973739624 -0.157758221030235291
-16.0587997436523438 -6.26189994812011719 6.23309993743896484 0.093214765191078186 0.491224586963653564 0.86603081226348877
-17.8922004699707031 -13.3964500427246094 5.45879983901977539 0.668491184711456299 -0.301767736673355103 0.679746866226196289
-16.6345005035400391 -4.48280000686645508 4.70240020751953125 -0.293488293886184692 -0.821019768714904785 -0.489684760570526123
-13.835200309753418 -5.57200002670288086 4.93639993667602539 -0.294742316007614136 -0.846952736377716064 -0.442490696907043457
-16.2992000579833984 -5.39169979095458984 5.65889978408813477 -0.151411145925521851 -0.652510762214660645 -0.74249875545501709
-22.09429931640625 -9.94079971313476562 4.93849992752075195 0.743452727794647217 -0.320798903703689575 -0.58682715892791748
-15.7573003768920898 -6.18559980392456055 6.16300010681152344 0.143599942326545715 0.544633209705352783 0.826289117336273193
-21.4852008819580078 -12.5956001281738281 6.17910003662109375 -0.349959284067153931 0.113796144723892212 0.929827392101287842
-16.9004993438720703 -13.0689001083374023 4.39200019836425781 0.856188654899597168 -0.347241461277008057 0.382575899362564087
-12.0277996063232422 -6.13380002975463867 4.69409990310668945 -0.36652672290802002 -0.878341913223266602 -0.306877315044403076
-17.3782005310058594 -6.50899982452392578 6.35090017318725586 -0.0181561727076768875 0.246847793459892273 0.968884170055389404
-19.3892993927001953 -9.63580036163330078 6.36679983139038086 -0.0526821613311767578 0.0244759581983089447 0.998311340808868408
-12.2510004043579102 -7.35069990158081055 0.896799981594085693 0.408441007137298584 0.488643020391464233 -0.770976006984710693
-22.0660991668701172 -6.76579999923706055 5.5728001594543457 -0.250867277383804321 -0.280709803104400635 0.926427364349365234
-20.2262001037597656 -5.53959989547729492 5.94140005111694336 -0.0916772559285163879 0.168634712696075439 0.981405913829803467
-18.6408004760742188 -8.62139987945556641 6.39519977569580078 -0.0811581909656524658 0.0185546521097421646 0.996528506278991699
-13.9750995635986328 -7.37370014190673828 6.68499994277954102 0.0498449839651584625 0.444745004177093506 0.894269168376922607
-19.9087009429931641 -9.26529979705810547 6.21859979629516602 -0.292193055152893066 0.121646098792552948 0.948591291904449463
-13.9045000076293945 -8.58390045166015625 7.06099987030029297 -0.0921192988753318787 0.152575597167015076 0.983989179134368896
-20.1619491577148438 -2.4551999568939209 1.69945001602172852 0.404292315244674683 0.91249239444732666 0.0624925754964351654
-20.2341995239257812 -12.1536998748779297 6.39309978485107422 -0.0373064614832401276 -0.0147559260949492455 0.999194920063018799
-19.6233997344970703 -10.4762001037597656 6.38110017776489258 -0.0884809345006942749 0.0460184700787067413 0.995014309883117676
-19.1597003936767578 -7.0952000617980957 6.21850013732910156 0.166380017995834351 -0.0405295751988887787 -0.985228419303894043
-12.4479999542236328 -5.95489978790283203 4.63959980010986328 -0.332684248685836792 -0.89934849739074707 -0.283713668584823608
-19.7213001251220703 -12.0347003936767578 6.39690017700195312 0.00830252189189195633 0.0268866494297981262 -0.999603986740112305
-19.8509006500244141 -5.43610000610351562 5.93629980087280273 -0.0285257734358310699 0.285091906785964966 0.958075582981109619
-17.2956008911132812 -11.9696998596191406 5.48360013961791992 0.606300950050354004 -0.268184244632720947 0.748649716377258301
-15.5220003128051758 -6.46799993515014648 6.30700016021728516 0.0873062834143638611 0.448589622974395752 0.889463305473327637
-21.055999755859375 -9.84930038452148438 5.82000017166137695 -0.492610573768615723 0.209537968039512634 0.844647049903869629
-14.1746501922607422 -8.97369956970214844 7.06164979934692383 -0.185925647616386414 -0.020132971927523613 0.982357501983642578
-21.7672996520996094 -11.7278995513916016 5.88500022888183594 -0.491110146045684814 0.233234763145446777 0.839292764663696289
-21.2085990905761719 -3.0596001148223877 4.66009998321533203 -0.22858843207359314 -0.701504707336425781 -0.675010025501251221
-12.4047002792358398 -7.43284988403320312 0.77770000696182251 0.336464792490005493 0.46140626072883606 -0.820911526679992676
-17.9386005401611328 -11.6333999633789062 5.9944000244140625 -0.462203860282897949 0.212274059653282166 -0.860992074012756348
-14.6429996490478516 -11.7709999084472656 5.6577000617980957 -0.384912878274917603 -0.734562456607818604 0.558802366256713867
-22.0356998443603516 -3.67580008506774902 5.24020004272460938 -0.101530775427818298 -0.446469157934188843 -0.889020144939422607
-22.2343006134033203 -4.02530002593994141 5.40579986572265625 -0.00488380482420325279 0.372280240058898926 0.928107500076293945
-22.9636001586914062 -4.94530010223388672 5.56909990310668945 -0.138627663254737854 0.0952994674444198608 0.985748648643493652
-19.9610004425048828 -6.77549982070922852 6.08209991455078125 -0.186446428298950195 -0.030016506090760231 0.982006490230560303
-13.1309003829956055 -5.48460006713867188 3.55719995498657227 -0.393386155366897583 -0.915998876094818115 -0.0786978304386138916
-19.7479000091552734 -13.4828996658325195 6.32480001449584961 -0.163643553853034973 0.107029393315315247 -0.980696439743041992
-20.3110008239746094 -2.76889991760253906 3.90100002288818359 0.287653297185897827 0.82195889949798584 0.491568088531494141
-21.7353000640869141 -6.06129980087280273 5.77930021286010742 -0.184713691473007202 -0.0598064400255680084 0.980970978736877441
-21.5431003570556641 -11.7857999801635742 6.01380014419555664 -0.369737774133682251 0.162452176213264465 0.914824187755584717
-12.4329996109008789 -8.38980007171630859 0.37929999828338623 -0.264258056879043579 -0.284540235996246338 0.921522974967956543
-21.37969970703125 -3.08130002021789551 4.72079992294311523 0.184899687767028809 0.684054732322692871 0.705606997013092041
-17.4284992218017578 -8.96249961853027344 6.30830001831054688 -0.0650641396641731262 -0.172180473804473877 0.982914328575134277
-15.3034000396728516 -9.52999973297119141 6.7677001953125 -0.250051289796829224 -0.200601965188980103 0.947223961353302002
-17.8521995544433594 -5.7444000244140625 6.06319999694824219 -0.0110712312161922455 -0.433704465627670288 -0.900987148284912109
-20.0126991271972656 -6.68170022964477539 6.07609987258911133 -0.175873488187789917 -0.0216894708573818207 0.984173834323883057
-19.3176002502441406 -3.1958000659942627 4.05299997329711914 0.249901279807090759 0.805250883102416992 0.53769916296005249
-20.2861995697021484 -3.91569995880126953 5.20380020141601562 -0.152626961469650269 -0.564736366271972656 -0.811035037040710449
-19.1770000457763672 -11.0663995742797852 6.39060020446777344 0.0679038241505622864 -0.0067553115077316761 0.997668981552124023
-14.0488996505737305 -12.3001003265380859 2.13610005378723145 -0.0271721389144659042 0.893122196197509766 0.448992669582366943
-13.961400032043457 -5.18330001831054688 3.96390008926391602 -0.383298695087432861 -0.906182169914245605 -0.178650498390197754
-15.4699001312255859 -11.0025997161865234 5.94700002670288086 -0.398269295692443848 -0.619247198104858398 0.67669379711151123
-21.5165996551513672 -5.33459997177124023 5.78950023651123047 -0.124947600066661835 0.123193643987178802 0.984485387802124023
-19.6564998626708984 -6.55109977722167969 6.13579988479614258 0.10284750908613205 -0.0807642862200737 -0.991412878036499023
-12.7880001068115234 -8.39809989929199219 0.283899992704391479 0.217523887753486633 0.200103074312210083 -0.95532304048538208
-13.6304998397827148 -5.86504983901977539 5.31554985046386719 -0.253095328807830811 -0.780491054058074951 -0.571643650531768799
-12.3713998794555664 -7.60669994354248047 0.69450002908706665 0.283644765615463257 0.43233606219291687 -0.85593879222869873
-22.8402004241943359 -10.2736997604370117 3.74449992179870605 0.844172060489654541 -0.370609253644943237 -0.387327104806900024
-19.6730995178222656 -2.85560011863708496 3.58800005912780762 -0.342000186443328857 -0.887440323829650879 -0.30900728702545166
-16.5233001708984375 -13.0325002670288086 2.76620006561279297 0.907312452793121338 -0.412278115749359131 0.0825276896357536316
-19.3085002899169922 -8.07649993896484375 6.24289989471435547 -0.281715840101242065 0.0860404521226882935 0.955632388591766357
-18.2250499725341797 -10.5734996795654297 6.26984977722167969 0.254466533660888672 -0.119265958666801453 0.959699153900146484
-14.3261499404907227 -11.8123998641967773 5.82740020751953125 -0.347396314144134521 -0.740375161170959473 0.575465381145477295
-17.1396007537841797 -9.56919956207275391 6.15530014038085938 -0.0616293959319591522 -0.270515322685241699 0.960740983486175537
-18.0597991943359375 -12.1656999588012695 5.93629980087280273 -0.477557003498077393 0.229957714676856995 -0.847973346710205078
-20.86090087890625 -5.58160018920898438 5.89349985122680664 0.115813486278057098 -0.103187069296836853 -0.987896561622619629
-15.5839004516601562 -4.41680002212524414 2.81389999389648438 -0.377278357744216919 -0.920493543148040771 -0.10174812376499176
-20.1644001007080078 -10.0917501449584961 6.24900007247924805 -0.287009328603744507 0.119096294045448303 0.950495541095733643
-15.2592000961303711 -4.87839984893798828 4.54979991912841797 -0.330659747123718262 -0.845625102519989014 -0.419025421142578125
-14.7019996643066406 -11.2215003967285156 6.17430019378662109 -0.362170219421386719 -0.560291707515716553 0.744920074939727783
-16.8286991119384766 -4.3646998405456543 4.61280012130737305 -0.271387726068496704 -0.826535046100616455 -0.493141472339630127
-12.5551004409790039 -6.45849990844726562 5.67530012130737305 -0.258543819189071655 -0.783322036266326904 -0.565297842025756836
-22.6343994140625 -8.51049995422363281 3.9655001163482666 -0.569572508335113525 -0.579881548881530762 0.582515716552734375
-13.9128999710083008 -11.4959001541137695 1.07299995422363281 -0.164112433791160583 -0.610329866409301758 -0.774960994720458984
-19.2448997497558594 -3.3134000301361084 4.21500015258789062 -0.234599962830543518 -0.804380655288696289 -0.545833885669708252
-12.331700325012207 -7.08150005340576172 1.05079996585845947 0.408441007137298584 0.488643020391464233 -0.770976006984710693
-21.721099853515625 -10.6175003051757812 5.59565019607543945 -0.587456405162811279 0.246814578771591187 0.770699381828308105
-13.1730499267578125 -6.85249996185302734 6.26574993133544922 0.188851132988929749 0.582001745700836182 0.790954649448394775
-14.1233997344970703 -10.2003002166748047 0.291200011968612671 -0.0049571450799703598 -0.370809257030487061 -0.928695797920227051
-18.0221996307373047 -4.73570013046264648 5.45079994201660156 0.143453434109687805 0.645618557929992676 0.750065207481384277
-13.3900995254516602 -7.70629978179931641 6.82130002975463867 -0.0665664449334144592 -0.393941193819046021 -0.916721999645233154
-11.8798999786376953 -6.34560012817382812 5.09679985046386719 -0.363856673240661621 -0.850485563278198242 -0.379845589399337769
-15.336400032043457 -11.0298004150390625 5.99770021438598633 -0.394007682800292969 -0.600765585899353027 0.695585131645202637
-13.5537996292114258 -7.87569999694824219 6.89260005950927734 0.00857386831194162369 0.324909061193466187 0.945706427097320557
-19.0201492309570312 -7.39480018615722656 6.24039983749389648 -0.176125556230545044 0.0461347773671150208 0.983286023139953613
-18.0337009429931641 -14.7920999526977539 4.97639989852905273 0.671183407306671143 -0.400559872388839722 0.623750448226928711
-15.5408000946044922 -8.75179958343505859 6.8255000114440918 -0.211430549621582031 -0.109415128827095032 0.971249401569366455
-19.7266006469726562 -2.6008000373840332 2.49079990386962891 0.406866908073425293 0.902970433235168457 0.138216212391853333
-14.2477998733520508 -9.24339962005615234 7.04739999771118164 -0.187886372208595276 -0.0824750438332557678 0.978721916675567627
-24.1844005584716797 -7.75710010528564453 3.82329988479614258 -0.441934257745742798 -0.733068764209747314 0.517014801502227783
-20.1378498077392578 -2.56885004043579102 3.26964998245239258 -0.35141366720199585 -0.900766611099243164 -0.25520169734954834
-13.9857997894287109 -9.67399978637695312 7.06529998779296875 -0.181336343288421631 -0.114828027784824371 0.976694226264953613
-20.8474006652832031 -10.6962003707885742 6.10869979858398438 0.374311387538909912 -0.143709748983383179 -0.916099607944488525
-12.0923995971679688 -6.57620000839233398 5.63049983978271484 0.233443409204483032 0.830490052700042725 0.505757331848144531
-16.8537998199462891 -11.3916997909545898 5.31319999694824219 -0.42144206166267395 0.470830649137496948 -0.775051653385162354
-20.9223995208740234 -12.7623996734619141 6.34079980850219727 -0.198160052299499512 0.0864251852035522461 0.976352035999298096
-15.8788995742797852 -4.28679990768432617 3.19930005073547363 -0.373713403940200806 -0.920147359371185303 -0.116906620562076569
-19.5674991607666016 -12.8001003265380859 6.34719991683959961 -0.12437845766544342 0.0725563764572143555 -0.989578485488891602
-20.9964008331298828 -5.76539993286132812 5.89729976654052734 0.115813486278057098 -0.103187069296836853 -0.987896561622619629
-14.3975496292114258 -12.4458999633789062 2.82999992370605469 0.0799757540225982666 0.989102959632873535 0.123608969151973724
-23.1233997344970703 -8.61880016326904297 3.14669990539550781 0.560351014137268066 0.509244978427886963 -0.653204619884490967
-21.3132991790771484 -5.80919981002807617 5.85550022125244141 0.137434273958206177 -0.0733917579054832458 -0.987788140773773193
-21.8700008392333984 -10.4746999740600586 5.42259979248046875 0.657353818416595459 -0.336914777755737305 -0.674072980880737305
-14.0704002380371094 -6.82770013809204102 6.38539981842041016 0.0670693144202232361 0.519275248050689697 0.851971209049224854
-15.180999755859375 -12.0823001861572266 4.52600002288818359 0.413355559110641479 0.817782700061798096 -0.400460511445999146
-17.3705005645751953 -14.1466999053955078 4.3880000114440918 0.813245594501495361 -0.371951699256896973 0.447530478239059448
-21.5625 -9.02880001068115234 5.09759998321533203 -0.683465123176574707 0.145591109991073608 0.715317189693450928
-13.7471504211425781 -6.27990007400512695 5.87270021438598633 -0.203965261578559875 -0.720683038234710693 -0.662581443786621094
-19.2367992401123047 -12.9245004653930664 6.26420021057128906 -0.23597128689289093 0.0955878496170043945 -0.967047333717346191
-16.6438999176025391 -5.6511998176574707 5.91650009155273438 0.0953915566205978394 0.570920228958129883 0.815445005893707275
-22.1289005279541016 -8.68480014801025391 4.28170013427734375 -0.635965287685394287 -0.24225577712059021 0.732707560062408447
-24.3617000579833984 -7.97419977188110352 3.22900009155273438 -0.438223779201507568 -0.7500191330909729 0.495410174131393433
-21.0263996124267578 -2.31349992752075195 3.48819994926452637 -0.304458111524581909 -0.874542832374572754 -0.377465367317199707
-14.1660995483398438 -11.8902502059936523 1.5671999454498291 -0.255105406045913696 -0.73570859432220459 -0.627418577671051025
-15.2763996124267578 -6.15889978408813477 6.08559989929199219 0.122801601886749268 0.634176313877105713 0.763374209403991699
-13.6316003799438477 -9.17049980163574219 7.15229988098144531 0.109241493046283722 -0.0123316952958703041 -0.993938744068145752
-17.1725997924804688 -13.2931003570556641 4.69369983673095703 0.776838481426239014 -0.329294592142105103 0.536737382411956787
-20.1956996917724609 -2.42779994010925293 2.75320005416870117 -0.38544541597366333 -0.908258974552154541 -0.162780433893203735
-13.8142004013061523 -5.18230009078979492 3.32060003280639648 0.393421292304992676 0.918375074863433838 0.0425079725682735443
-13.1857004165649414 -8.22679996490478516 7.02099990844726562 0.0252197384834289551 -0.240404427051544189 -0.970345139503479004
-18.0477008819580078 -3.34809994697570801 2.96129989624023438 0.375345289707183838 0.922070503234863281 0.0943500623106956482
-16.6959991455078125 -12.5587997436523438 4.42770004272460938 0.726835727691650391 -0.530505776405334473 0.436203509569168091
-12.0496997833251953 -8.06229972839355469 0.603999972343444824 0.261541604995727539 0.334824055433273315 -0.905256211757659912
-15.5665998458862305 -8.94040012359619141 6.80359983444213867 -0.207859516143798828 -0.142149105668067932 0.967774808406829834
-13.5071001052856445 -6.68590021133422852 6.19315004348754883 0.160486534237861633 0.630763411521911621 0.759198009967803955
-11.695500373840332 -6.1175999641418457 3.91610002517700195 -0.43498384952545166 -0.894979596138000488 -0.0989979729056358337
-13.9608001708984375 -9.22220039367675781 7.1016998291015625 -0.187886372208595276 -0.0824750438332557678 0.978721916675567627
-22.0422000885009766 -7.65329980850219727 5.18809986114501953 -0.381056517362594604 -0.477327704429626465 0.791804373264312744
-16.4762992858886719 -11.0455999374389648 5.346099853515625 0.0297244396060705185 0.687679588794708252 -0.725405573844909668
-23.0529003143310547 -8.22239971160888672 4.06040000915527344 -0.435831218957901001 -0.72282564640045166 0.536259472370147705
-20.9929008483886719 -11.9356002807617188 6.24459981918334961 0.288941115140914917 -0.130700498819351196 -0.948383033275604248
-21.3596992492675781 -10.6574001312255859 5.84980010986328125 -0.505774378776550293 0.196428999304771423 0.840004682540893555
-20.6072006225585938 -11.8164997100830078 6.32320022583007812 -0.185125917196273804 0.089211389422416687 0.978657126426696777
-22.21405029296875 -5.75489997863769531 5.70289993286132812 -0.197170153260231018 -0.00534192100167274475 0.980354726314544678
-24.0137996673583984 -7.57089996337890625 4.1949000358581543 0.442411631345748901 0.669304728507995605 -0.596911370754241943
-17.2600994110107422 -6.42829990386962891 6.32800006866455078 0.00124330050311982632 0.314886987209320068 0.949128329753875732
-12.4988002777099609 -8.16899967193603516 0.421999990940093994 -0.264258056879043579 -0.284540235996246338 0.921522974967956543
-12.1561002731323242 -6.66410017013549805 5.7817997932434082 0.218776583671569824 0.841551303863525391 0.493890881538391113
-20.6802005767822266 -2.24340009689331055 2.82850003242492676 -0.369952887296676636 -0.905089139938354492 -0.209639117121696472
-19.2950000762939453 -6.1968998908996582 6.14589977264404297 -0.111714482307434082 0.104923799633979797 0.988185644149780273
-22.65570068359375 -11.9792995452880859 5.30350017547607422 0.675149202346801758 -0.25837370753288269 -0.690953373908996582
-13.6115999221801758 -5.33979988098144531 4.03910017013549805 -0.381111174821853638 -0.908267498016357422 -0.172639712691307068
-22.2476997375488281 -4.60760021209716797 5.58830022811889648 -0.0835169181227684021 0.212863892316818237 0.973505973815917969
-15.8051996231079102 -4.65819978713989258 4.4962000846862793 0.31502869725227356 0.851319789886474609 0.419537276029586792
-20.6697998046875 -10.425999641418457 6.13170003890991211 0.331141620874404907 -0.167364805936813354 -0.928619563579559326
-16.1718006134033203 -4.34770011901855469 4.07670021057128906 -0.34583050012588501 -0.87331235408782959 -0.34311339259147644
-15.8233003616333008 -8.96240043640136719 6.74380016326904297 -0.217401444911956787 -0.127273038029670715 0.967749059200286865
-18.1175994873046875 -10.8809995651245117 6.19920015335083008 0.323597759008407593 -0.139182791113853455 0.935902059078216553
-16.1056995391845703 -7.39669990539550781 6.6483001708984375 0.0727295204997062683 -0.22171466052532196 -0.972395479679107666
-18.9155006408691406 -5.03509998321533203 5.76420021057128906 -0.0492101088166236877 -0.474408715963363647 -0.878928184509277344
-18.2395000457763672 -3.50819993019104004 3.89529991149902344 -0.321559548377990723 -0.880109906196594238 -0.349293559789657593
-16.8423004150390625 -3.86330008506774902 2.66960000991821289 0.394603878259658813 0.913728475570678711 0.0968918353319168091
-22.5323009490966797 -8.11880016326904297 4.55590009689331055 -0.458762437105178833 -0.570023000240325928 0.681623637676239014
-16.2364006042480469 -4.9654998779296875 5.20020008087158203 -0.221433863043785095 -0.754805445671081543 -0.617442965507507324
-16.9001998901367188 -5.41160011291503906 5.7863001823425293 0.127496272325515747 0.593533337116241455 0.794646382331848145
-13.2292003631591797 -9.13099956512451172 7.20550012588500977 0.115965783596038818 -0.128929570317268372 -0.984849810600280762
-23.0939006805419922 -5.26789999008178711 5.55889987945556641 -0.199352309107780457 -0.00902280211448669434 0.979886353015899658
-17.4920005798339844 -10.3812999725341797 6.04010009765625 0.238135099411010742 -0.24924856424331665 0.938704848289489746
-18.6075000762939453 -9.79969978332519531 6.38889980316162109 0.0379084385931491852 -0.0188022423535585403 0.999104321002960205
-16.4619998931884766 -6.25040006637573242 6.24790000915527344 0.0298578031361103058 0.414645761251449585 0.909492969512939453
-15.1309995651245117 -4.68300008773803711 3.82019996643066406 -0.376927465200424194 -0.910532176494598389 -0.169872909784317017
-18.350799560546875 -3.21449995040893555 2.24930000305175781 0.398434877395629883 0.917171299457550049 0.00681794388219714165
-14.7801504135131836 -4.94945001602172852 4.29265022277832031 -0.324071049690246582 -0.889040768146514893 -0.323395282030105591
-22.3432998657226562 -6.13579988479614258 5.64039993286132812 0.222249627113342285 0.125619366765022278 -0.966863393783569336
-24.2301998138427734 -7.45079994201660156 4.18620014190673828 0.442411631345748901 0.669304728507995605 -0.596911370754241943
-16.6401004791259766 -9.22589969635009766 6.46360015869140625 -0.225487977266311646 -0.299698829650878906 0.927003681659698486
-15.3487997055053711 -9.65909957885742188 6.71850013732910156 -0.279599189758300781 -0.246153742074966431 0.928026199340820312
-11.716099739074707 -7.88889980316162109 0.807699978351593018 0.346412181854248047 0.40608137845993042 -0.845633804798126221
-17.7091007232666016 -4.79379987716674805 5.43830013275146484 0.167438939213752747 0.642866849899291992 0.74745333194732666
-22.2910995483398438 -10.9463996887207031 5.2172999382019043 0.711261630058288574 -0.303716540336608887 -0.633926749229431152
-22.8509006500244141 -8.45189952850341797 3.86960005760192871 -0.591055035591125488 -0.521218240261077881 0.615617930889129639
-21.8761005401611328 -5.23589992523193359 5.73449993133544922 -0.116648346185684204 0.117061875760555267 0.986250340938568115
-19.5126991271972656 -3.54959988594055176 4.66879987716674805 0.214026033878326416 0.778045177459716797 0.590625524520874023
-19.4748001098632812 -7.40110015869140625 6.12179994583129883 -0.241960018873214722 -0.00854134652763605118 0.970248639583587646
-21.5967998504638672 -2.60179996490478516 4.27239990234375 -0.227599084377288818 -0.774856448173522949 -0.589742422103881836
-18.0240001678466797 -3.99460005760192871 4.64879989624023438 -0.282020509243011475 -0.794130861759185791 -0.538349926471710205
-15.3004999160766602 -10.2103996276855469 6.53319978713989258 -0.310255885124206543 -0.42587319016456604 0.849925458431243896
-17.0704994201660156 -14.0055999755859375 3.78579998016357422 0.868863999843597412 -0.374725431203842163 0.323506176471710205
-17.45159912109375 -5.35445022583007812 5.81869983673095703 0.110753186047077179 0.537133157253265381 0.836194753646850586
-18.5069999694824219 -11.7090997695922852 6.2080998420715332 -0.276188820600509644 0.181789964437484741 -0.943754255771636963
-22.2077007293701172 -8.42169952392578125 4.42869997024536133 -0.548061907291412354 -0.408769160509109497 0.729750633239746094
-22.0489006042480469 -2.65179991722106934 4.47539997100830078 0.144207000732421875 0.705519258975982666 0.693863749504089355
-12.0805997848510742 -7.8935999870300293 0.667599976062774658 0.308268725872039795 0.377054780721664429 -0.873384296894073486
-22.0394001007080078 -7.39260005950927734 5.33409976959228516 -0.349441587924957275 -0.467375576496124268 0.812065660953521729
-12.7580995559692383 -7.15070009231567383 6.42829990386962891 -0.197812557220458984 -0.562523782253265381 -0.802768468856811523
-21.3288993835449219 -13.3369998931884766 6.31300020217895508 0.222242668271064758 -0.0650481656193733215 -0.972819089889526367
-18.4444007873535156 -10.4624004364013672 6.32980012893676758 0.220946088433265686 -0.0967428386211395264 0.970475971698760986
-13.2889003753662109 -8.29129981994628906 0.176899999380111694 0.205382317304611206 0.15301436185836792 -0.966646134853363037
-15.2005996704101562 -11.2236003875732422 5.89739990234375 -0.416270852088928223 -0.651049196720123291 0.634707391262054443
-14.0560998916625977 -9.08679962158203125 7.08319997787475586 -0.186707302927970886 -0.0602220967411994934 0.980568051338195801
-15.9130001068115234 -11.9267997741699219 4.03090000152587891 -0.0671507194638252258 0.861384987831115723 -0.503494501113891602
-22.7238006591796875 -4.18830013275146484 5.45419979095458984 0.125818237662315369 -0.279351174831390381 -0.951910018920898438
-16.2581996917724609 -12.4050998687744141 2.63389992713928223 0.681481301784515381 -0.711788296699523926 0.170119613409042358
-16.6511993408203125 -11.6583003997802734 4.96630001068115234 -0.334901154041290283 0.625932037830352783 -0.704308390617370605
-13.3200998306274414 -10.9798002243041992 0.628600001335144043 0.0346054695546627045 -0.482548803091049194 -0.875185191631317139
-17.2024002075195312 -7.86619997024536133 6.55249977111816406 -0.17374911904335022 -0.0924487486481666565 0.980440974235534668
-19.7042999267578125 -3.84060001373291016 5.02769994735717773 0.205297097563743591 0.668081164360046387 0.715206742286682129
-17.0210990905761719 -10.6178998947143555 5.73120021820068359 0.100562408566474915 -0.371863216161727905 0.922824442386627197
-18.5629005432128906 -3.67969989776611328 4.44329977035522461 -0.267545372247695923 -0.804596900939941406 -0.530135154724121094
-13.3246002197265625 -5.40889978408813477 3.13509988784790039 0.396737158298492432 0.917744696140289307 0.0185547489672899246
-13.2587995529174805 -7.88570022583007812 6.89429998397827148 -0.0625142976641654968 -0.374897599220275879 -0.924956083297729492
-23.2035007476806641 -6.36079978942871094 5.35279989242553711 -0.299453079700469971 -0.234992325305938721 0.924719691276550293
-21.3131008148193359 -4.68830013275146484 5.65439987182617188 -0.0523318536579608917 0.26590043306350708 0.962579011917114258
-17.0331993103027344 -4.76669979095458984 5.23750019073486328 -0.196410700678825378 -0.719110548496246338 -0.666560471057891846
-18.9451007843017578 -8.35789966583251953 6.34980010986328125 -0.14735645055770874 0.0886605381965637207 0.985101699829101562
-14.6345996856689453 -12.3240995407104492 4.60650014877319336 -0.38488304615020752 -0.847922742366790771 0.364543616771697998
-18.8960990905761719 -9.62150001525878906 6.40159988403320312 -0.00476859137415885925 -0.00762363756075501442 -0.999959588050842285
-15.2606000900268555 -6.58860015869140625 6.35480022430419922 0.0654477700591087341 0.486847966909408569 0.871031403541564941
-21.9640998840332031 -6.08080005645751953 5.73099994659423828 -0.198815986514091492 -0.0728521794080734253 0.977325320243835449
-22.569000244140625 -10.5067996978759766 4.60699987411499023 0.814698338508605957 -0.341023653745651245 -0.469009041786193848
-17.9741001129150391 -13.738499641418457 5.40059995651245117 0.687060117721557617 -0.312807291746139526 0.655820071697235107
-18.0617008209228516 -13.4446001052856445 5.58080005645751953 0.590082764625549316 -0.262220948934555054 0.763572216033935547
-19.0301990509033203 -5.55259990692138672 5.99639987945556641 -0.010026964358985424 0.355324715375900269 0.934689164161682129
-16.1807994842529297 -6.46890020370483398 6.34210014343261719 0.029292350634932518 0.398027211427688599 0.916905820369720459
-12.2194004058837891 -9.47690010070800781 0.299499988555908203 0.184499219059944153 -0.00534484907984733582 -0.982818126678466797
-13.7684001922607422 -11.4595003128051758 1.01129996776580811 -0.164112433791160583 -0.610329866409301758 -0.774960994720458984
-11.6606998443603516 -7.1491999626159668 1.3573000431060791 -0.519487977027893066 -0.545330405235290527 0.657835066318511963
-20.2192001342773438 -7.79040002822875977 5.82899999618530273 -0.335958659648895264 -0.0282270424067974091 0.941453695297241211
-17.5886993408203125 -14.6995000839233398 4.33970022201538086 0.814043998718261719 -0.367273300886154175 0.449936330318450928
-17.7768001556396484 -3.46939992904663086 3.02909994125366211 -0.385468482971191406 -0.916359961032867432 -0.108159609138965607
-20.2721996307373047 -11.3563003540039062 6.34719991683959961 -0.155877441167831421 0.0661631673574447632 0.985558032989501953
-19.6781005859375 -7.84060001373291016 6.07660007476806641 -0.322921216487884521 0.0399985946714878082 0.945580244064331055
-19.4410991668701172 -13.9898996353149414 6.18520021438598633 -0.330698966979980469 0.219864219427108765 -0.917767882347106934
-21.1275997161865234 -10.2978000640869141 5.89209985733032227 -0.468393325805664062 0.19840492308139801 0.860954821109771729
-11.9194002151489258 -6.24849987030029297 4.89820003509521484 -0.363856673240661621 -0.850485563278198242 -0.379845589399337769
-21.6070995330810547 -12.3697004318237305 6.09630012512207031 -0.401131570339202881 0.149552181363105774 0.903729856014251709
-17.0487003326416016 -14.1527996063232422 2.41289997100830078 0.911546289920806885 -0.405347585678100586 0.0691138729453086853
-12.3121004104614258 -8.03219985961914062 0.528699994087219238 -0.274232625961303711 -0.307435303926467896 0.911197006702423096
