ply
format ascii 1.0
element vertex 373
property float x
property float y
property float z
property float nx
property float ny
property float nz
end_header
-0.232700005173683167 -12.9732999801635742 -5.48029994964599609 -0.329130202531814575 0.648820281028747559 0.686079859733581543
0.382899999618530273 -14.2876996994018555 -3.73169994354248047 0.176004767417907715 -0.797456443309783936 -0.577135622501373291
-4.14370012283325195 -4.91069984436035156 -4.71029996871948242 0.7997322678565979 -0.559527099132537842 -0.217618271708488464
-1.87430000305175781 -14.255000114440918 -3.34969997406005859 -0.170651376247406006 -0.921485006809234619 -0.348917633295059204
-5.68610000610351562 -11.1413002014160156 -3.06110000610351562 0.775086522102355957 0.385715216398239136 -0.500464498996734619
-3.88220000267028809 -5.05679988861083984 -3.33999991416931152 0.789488255977630615 -0.466068238019943237 -0.399360299110412598
-7.02260017395019531 -7.22980022430419922 -4.37790012359619141 -0.569475948810577393 0.374841749668121338 0.731567323207855225
-1.56040000915527344 -9.71199989318847656 0.933799982070922852 -0.436157584190368652 0.487389832735061646 0.75645071268081665
-3.1781001091003418 -7.89799976348876953 -1.44050002098083496 -0.400229662656784058 0.421546250581741333 0.813704490661621094
-0.230700001120567322 -13.1430997848510742 -5.30929994583129883 0.259794920682907104 -0.717145144939422607 -0.64669114351272583
-6.04489994049072266 -8.37180042266845703 -3.11220002174377441 -0.650356650352478027 0.227050825953483582 0.724902868270874023
1.62919998168945312 -12.636199951171875 -4.55410003662109375 -0.567310154438018799 0.363413065671920776 0.738979101181030273
-6.79430007934570312 -10.3552999496459961 -4.13789987564086914 0.753646016120910645 0.435519009828567505 -0.492281258106231689
-0.0694999992847442627 -13.7243995666503906 -4.59399986267089844 0.184575557708740234 -0.759399294853210449 -0.623894691467285156
-2.38949990272521973 -5.14550018310546875 -1.80359995365142822 0.538932144641876221 -0.321050256490707397 -0.778767526149749756
-8.16469955444335938 -8.39220046997070312 -5.18499994277954102 -0.699103116989135742 0.075525529682636261 0.711020886898040771
-7.73600006103515625 -8.81120014190673828 -4.74919986724853516 0.695214509963989258 0.10661981999874115 -0.710850894451141357
-6.40850019454956055 -9.36299991607666016 -3.31920003890991211 0.750259935855865479 0.0259680487215518951 -0.660632789134979248
2.23670005798339844 -10.4715995788574219 -4.19990015029907227 0.761325299739837646 0.112613379955291748 -0.638515472412109375
2.08430004119873047 -13.325200080871582 -3.83689999580383301 -0.501948416233062744 0.520115494728088379 0.691033780574798584
2.30529999732971191 -11.2658004760742188 -4.27250003814697266 0.741907417774200439 0.0544075965881347656 -0.668291270732879639
-6.19430017471313477 -11.5631999969482422 -4.56839990615844727 0.707607448101043701 0.636512160301208496 -0.306828856468200684
-2.50749993324279785 -10.2783002853393555 0.560400009155273438 -0.628480970859527588 0.269808351993560791 0.729530751705169678
3.10890007019042969 -10.6443004608154297 -3.10689997673034668 0.774298489093780518 0.0761734917759895325 -0.628219246864318848
-2.01250004768371582 -8.91639995574951172 0.0320999994874000549 -0.363119423389434814 0.608682632446289062 0.705442905426025391
-2.04990005493164062 -10.6933002471923828 1.09759998321533203 0.64888465404510498 -0.260359585285186768 -0.714955687522888184
0.640299975872039795 -12.9265003204345703 -5.04339981079101562 -0.413194864988327026 0.534897863864898682 0.736989974975585938
-0.568599998950958252 -13.2287998199462891 -5.35669994354248047 0.222909048199653625 -0.750084996223449707 -0.622642815113067627
-4.04979991912841797 -8.66100025177001953 -1.41670000553131104 -0.526995003223419189 0.397123724222183228 0.751378059387207031
-3.62450003623962402 -8.11579990386962891 -1.52460002899169922 -0.410254508256912231 0.409130841493606567 0.815047979354858398
-7.90850019454956055 -7.43730020523071289 -5.02769994735717773 -0.671432137489318848 0.192250415682792664 0.715694546699523926
-3.28189992904663086 -3.96830010414123535 -3.44420003890991211 0.751571834087371826 -0.540406942367553711 -0.378285706043243408
-3.6426999568939209 -12.9848003387451172 -1.65139997005462646 0.722397804260253906 0.611531734466552734 -0.322754323482513428
-4.96350002288818359 -4.89139986038208008 -6.51039981842041016 -0.0226227063685655594 0.917267978191375732 0.39762762188911438
-0.975700020790100098 -13.7883996963500977 -4.70679998397827148 -0.0423211194574832916 0.838817238807678223 0.542765676975250244
-5.8404998779296875 -7.90159988403320312 -3.1435999870300293 -0.564793229103088379 0.349097639322280884 0.747756302356719971
-4.45590019226074219 -5.54269981384277344 -4.13019990921020508 0.797594249248504639 -0.549736440181732178 -0.248260438442230225
-0.420100003480911255 -11.3711996078491211 -6.7452998161315918 0.504389584064483643 -0.415593206882476807 -0.75688403844833374
-4.27089977264404297 -6.14900016784667969 -2.91140007972717285 0.722226858139038086 -0.450681567192077637 -0.524666070938110352
-5.26620006561279297 -9.68830013275146484 -2.11080002784729004 0.729784607887268066 -0.00724827032536268234 -0.683638691902160645
-4.69729995727539062 -7.66540002822875977 -2.37310004234313965 -0.583621680736541748 0.384535819292068481 0.715204775333404541
-2.2014000415802002 -12.2097997665405273 1.09769999980926514 0.709659457206726074 0.118508122861385345 -0.694506525993347168
-2.47650003433227539 -13.9670000076293945 -1.14390003681182861 -0.669938325881958008 -0.690385341644287109 0.273039698600769043
-5.4766998291015625 -11.225799560546875 -2.80710005760192871 0.76820605993270874 0.358138948678970337 -0.530656099319458008
1.47290003299713135 -13.2372503280639648 -4.29855012893676758 -0.437677770853042603 0.551474213600158691 0.710150957107543945
-3.63560009002685547 -12.7924003601074219 -1.33609998226165771 0.738626956939697266 0.55015486478805542 -0.38956373929977417
-1.1324000358581543 -14.2938003540039062 -3.73300004005432129 -0.147878646850585938 -0.906624138355255127 -0.39517664909362793
-6.93669986724853516 -6.32240009307861328 -4.89330005645751953 -0.421553254127502441 0.535492181777954102 0.731806635856628418
-1.82210004329681396 -13.8354997634887695 -4.56470012664794922 0.0376223474740982056 0.898280739784240723 0.437808454036712646
2.74110007286071777 -12.5073003768920898 -3.69090008735656738 0.703885793685913086 -0.230292797088623047 -0.671944916248321533
-3.89800000190734863 -4.50209999084472656 -4.65749979019165039 0.850830495357513428 -0.506060004234313965 -0.141388475894927979
-2.25489997863769531 -4.83479976654052734 -1.83140003681182861 0.558983087539672852 -0.323991090059280396 -0.763261198997497559
0.0438000001013278961 -11.2726001739501953 -6.42129993438720703 -0.61079937219619751 0.266741484403610229 0.745501935482025146
2.54469990730285645 -10.8692998886108398 -3.93939995765686035 0.75949406623840332 0.103691242635250092 -0.642196953296661377
-4.51224994659423828 -6.59089994430541992 -2.88100004196166992 0.684759557247161865 -0.481472998857498169 -0.547072291374206543
0.266699999570846558 -13.5068998336791992 -4.71600008010864258 0.286336004734039307 -0.699517607688903809 -0.654741823673248291
-5.62400007247924805 -5.87060022354125977 -4.73479986190795898 -0.328716248273849487 0.73756861686706543 0.589862823486328125
-3.26819992065429688 -12.9755001068115234 -0.900600016117095947 0.741574883460998535 0.535086154937744141 -0.404659688472747803
-3.52740001678466797 -10.0558996200561523 -0.386900007724761963 -0.645003914833068848 0.221514895558357239 0.731369316577911377
-8.20460033416748047 -9.81210041046142578 -5.88920021057128906 0.763412594795227051 0.462858110666275024 -0.450514823198318481
-5.68209981918334961 -11.2133998870849609 -3.11179995536804199 0.782445728778839111 0.443314433097839355 -0.437322527170181274
-6.46619987487792969 -10.8793001174926758 -4.07530021667480469 0.747483909130096436 0.47502058744430542 -0.46435248851776123
0.868799984455108643 -13.8914003372192383 -4.05380010604858398 0.280552268028259277 -0.680022895336151123 -0.677391529083251953
-4.09060001373291016 -12.2782001495361328 -1.53659999370574951 0.760948061943054199 0.467786163091659546 -0.449593335390090942
-1.77600002288818359 -11.0585002899169922 1.45420002937316895 0.685843944549560547 -0.184481486678123474 -0.703977704048156738
-1.00049996376037598 -13.7477998733520508 -4.77269983291625977 0.05537400022149086 -0.830212950706481934 -0.554689288139343262
-5.25260019302368164 -6.84940004348754883 -3.5176999568939209 -0.520148813724517822 0.558350145816802979 0.646289646625518799
-0.111800000071525574 -15.1002998352050781 -2.15899991989135742 0.153089717030525208 0.943362712860107422 0.294330358505249023
-1.29929995536804199 -9.32569980621337891 0.771300017833709717 -0.366375237703323364 0.62958216667175293 0.685124397277832031
-1.0503000020980835 -13.342900276184082 -5.37109994888305664 0.16061478853225708 -0.790296316146850586 -0.591299116611480713
2.49064993858337402 -11.9202995300292969 -4.04594993591308594 0.715394079685211182 -0.123623013496398926 -0.687698066234588623
-5.20580005645751953 -12.1795997619628906 -3.57450008392333984 0.714059412479400635 0.608119845390319824 -0.346856504678726196
-7.11740016937255859 -8.28499984741210938 -4.10769987106323242 -0.683178544044494629 0.143995866179466248 0.715913593769073486
0.545449972152709961 -12.4358501434326172 -5.44834995269775391 -0.475342810153961182 0.470742195844650269 0.743270456790924072
-7.13000011444091797 -6.40269994735717773 -4.95190000534057617 -0.454893797636032104 0.482132047414779663 0.748745858669281006
-3.06180000305175781 -13.5572004318237305 -1.55859994888305664 0.694113194942474365 0.663616538047790527 -0.278962284326553345
-4.64989995956420898 -10.0644998550415039 -1.45780003070831299 0.721167981624603271 -0.0134612210094928741 -0.692629456520080566
-6.56920003890991211 -10.65155029296875 -4.0279998779296875 0.753086864948272705 0.450649112462997437 -0.479349106550216675
-2.12339997291564941 -9.6305999755859375 0.513999998569488525 -0.473021268844604492 0.481935769319534302 0.737555980682373047
1.59749996662139893 -11.45989990234375 -4.98180007934570312 0.687324702739715576 -0.124666213989257812 -0.715571880340576172
-3.58340001106262207 -15.4336004257202148 -1.4814000129699707 0.589485287666320801 0.339993447065353394 -0.732742488384246826
1.10440003871917725 -13.0847997665405273 -4.64160013198852539 -0.418521225452423096 0.550262928009033203 0.722530782222747803
3.0374000072479248 -10.4497995376586914 -3.08929991722106934 0.765302300453186035 0.0964396223425865173 -0.636405408382415771
-7.85239982604980469 -10.2288999557495117 -5.75050020217895508 0.708531081676483154 0.593566358089447021 -0.381657779216766357
-5.56790018081665039 -9.03059959411621094 -2.50250005722045898 0.686307609081268311 -0.148777797818183899 -0.711931884288787842
-1.84619998931884766 -10.2790002822875977 1.0821000337600708 0.529339015483856201 -0.390574723482131958 -0.753161072731018066
-3.26079988479614258 -7.77099990844726562 -1.49969995021820068 -0.386050492525100708 0.378067106008529663 0.841445326805114746
-0.113799996674060822 -14.934300422668457 -2.58430004119873047 0.0599511750042438507 0.935807287693023682 0.347376763820648193
-1.83560001850128174 -17.6634006500244141 -3.61870002746582031 -0.014176931232213974 0.213946506381034851 -0.97674250602722168
-2.36220002174377441 -11.2538003921508789 0.947149991989135742 0.686104416847229004 -0.0947463512420654297 -0.721307039260864258
-4.41580009460449219 -5.40250015258789062 -4.3955998420715332 0.756201207637786865 -0.611550629138946533 -0.232734948396682739
-6.08890008926391602 -6.43779993057250977 -4.32439994812011719 -0.369348794221878052 0.604932487010955811 0.705434739589691162
-0.373699992895126343 -14.9287004470825195 -2.47909998893737793 -0.139732956886291504 -0.930367946624755859 -0.33895447850227356
0.660199999809265137 -14.3882999420166016 -3.52810001373291016 -0.185440629720687866 0.831315398216247559 0.523952722549438477
-6.49079990386962891 -11.1057500839233398 -4.38745021820068359 0.749049961566925049 0.519965648651123047 -0.410560458898544312
-5.68079996109008789 -9.00290012359619141 -2.61279988288879395 -0.681386947631835938 0.153380021452903748 0.715672016143798828
-4.4935002326965332 -15.0352001190185547 -2.29259991645812988 0.519941031932830811 0.226741403341293335 -0.823559165000915527
-7.16190004348754883 -11.1914997100830078 -6.20480012893676758 0.72133481502532959 0.633444666862487793 -0.280042767524719238
1.73570001125335693 -10.4749002456665039 -4.81879997253417969 0.731139004230499268 -0.00484267435967922211 -0.682211339473724365
-3.83080005645751953 -4.68599987030029297 -3.7341001033782959 0.821028947830200195 -0.500362098217010498 -0.27486225962638855
-2.51760005950927734 -12.2667999267578125 0.702799975872039795 0.764811038970947266 0.165812820196151733 -0.622551321983337402
-4.77320003509521484 -9.31429958343505859 -1.70589995384216309 -0.627086222171783447 0.225049242377281189 0.745731651782989502
-7.47060012817382812 -7.57154989242553711 -4.60529994964599609 -0.651883304119110107 0.179424881935119629 0.736786842346191406
-4.49830007553100586 -12.3225002288818359 -2.31279993057250977 0.757118105888366699 0.546171724796295166 -0.35842519998550415
-6.52495002746582031 -6.40150022506713867 -4.58984994888305664 0.396011024713516235 -0.532071590423583984 -0.748381614685058594
-2.2528998851776123 -13.1501998901367188 0.611000001430511475 0.777621626853942871 0.327428489923477173 -0.536744952201843262
-3.21659994125366211 -15.5076999664306641 -3.3478999137878418 -0.257380306720733643 -0.0800191164016723633 -0.96299135684967041
-0.403499990701675415 -14.3996000289916992 -3.64010000228881836 -0.00490321172401309013 -0.879442811012268066 -0.475979268550872803
-4.34950017929077148 -5.48470020294189453 -3.85450005531311035 0.816380918025970459 -0.532068729400634766 -0.224555179476737976
-5.3172001838684082 -11.8373003005981445 -3.18779993057250977 0.742886722087860107 0.545706331729888916 -0.387716233730316162
-3.59640002250671387 -4.30049991607666016 -3.72350001335144043 0.813528597354888916 -0.505852282047271729 -0.286853134632110596
-7.85410022735595703 -6.19894981384277344 -5.56005001068115234 0.531788289546966553 -0.505026042461395264 -0.679816126823425293
-6.62559986114501953 -7.97599983215332031 -3.74340009689331055 0.616610407829284668 -0.268641471862792969 -0.740015804767608643
-8.16349983215332031 -7.73519992828369141 -5.20539999008178711 0.697354733943939209 -0.103619776666164398 -0.709196269512176514
-6.61350011825561523 -5.386199951171875 -5.65049982070922852 0.296381682157516479 -0.731665909290313721 -0.613858997821807861
-5.24300003051757812 -12.148900032043457 -3.59489989280700684 0.714059412479400635 0.608119845390319824 -0.346856504678726196
-6.63310003280639648 -11.1737003326416016 -4.77969980239868164 0.754073381423950195 0.548771262168884277 -0.360864847898483276
-2.71440005302429199 -5.94460010528564453 -1.72360002994537354 0.490399032831192017 -0.27492523193359375 -0.826997518539428711
-3.67050004005432129 -11.0858001708984375 -0.424400001764297485 0.725791990756988525 0.0485751219093799591 -0.686197102069854736
-1.15240001678466797 -13.8208999633789062 -4.6623997688293457 0.00550362979993224144 -0.866318106651306152 -0.499462306499481201
-1.32159996032714844 -14.4555997848510742 -3.20554995536804199 -0.189558833837509155 -0.921575665473937988 -0.338771015405654907
-2.02410006523132324 -13.9120998382568359 -4.30249977111816406 0.0554956123232841492 0.91725081205368042 0.394425064325332642
-2.71090006828308105 -9.35560035705566406 -0.0619000010192394257 -0.483886510133743286 0.484647363424301147 0.72867739200592041
-2.31119990348815918 -8.73600006103515625 -0.28540000319480896 -0.374590933322906494 0.589265584945678711 0.715854525566101074
-3.6772000789642334 -8.94929981231689453 -0.982999980449676514 -0.500192821025848389 0.45211106538772583 0.738513827323913574
-1.58490002155303955 -14.4404001235961914 -2.99880003929138184 -0.236423283815383911 -0.930016696453094482 -0.281376957893371582
-2.77570009231567383 -12.8957996368408203 0.01119999960064888 0.774358689785003662 0.380374133586883545 -0.505652189254760742
-2.02769994735717773 -10.3823995590209961 0.99169999361038208 0.587671518325805664 -0.357748240232467651 -0.725712299346923828
-4.60690021514892578 -8.58629989624023438 -1.86329996585845947 -0.562854468822479248 0.336069345474243164 0.755150437355041504
-0.897350013256072998 -14.5945501327514648 -3.0872499942779541 -0.181847184896469116 -0.919215023517608643 -0.349249660968780518
-2.59150004386901855 -3.93700003623962402 -2.49410009384155273 0.685945332050323486 -0.360878735780715942 -0.631858766078948975
-7.12760019302368164 -10.1758003234863281 -4.50680017471313477 0.75382542610168457 0.4350300133228302 -0.492438912391662598
-2.35419988632202148 -12.6288003921508789 0.778100013732910156 0.802446126937866211 0.227149084210395813 -0.551800251007080078
-2.41009998321533203 -12.440699577331543 0.782899975776672363 0.789177536964416504 0.18501010537147522 -0.585636436939239502
-2.87639999389648438 -9.33339977264404297 -0.190799996256828308 -0.523754000663757324 0.432996183633804321 0.733618497848510742
-5.24599981307983398 -7.6343998908996582 -2.88280010223388672 -0.560177028179168701 0.447872251272201538 0.696858763694763184
-6.56960010528564453 -9.26850032806396484 -3.48990011215209961 0.755465447902679443 0.0405760109424591064 -0.653930842876434326
-0.0926000028848648071 -13.560999870300293 -4.79939985275268555 0.200625106692314148 -0.758442521095275879 -0.620092332363128662
-7.71110010147094727 -7.22730016708374023 -4.92640018463134766 -0.640030324459075928 0.277026951313018799 0.7166709303855896
-2.90039992332458496 -12.3549995422363281 0.17579999566078186 0.769834995269775391 0.281642496585845947 -0.572740435600280762
0.811900019645690918 -14.2516002655029297 -3.66009998321533203 -0.19219692051410675 0.776214301586151123 0.600459575653076172
-1.23670005798339844 -8.83080005645751953 0.308649986982345581 0.319232016801834106 -0.664053738117218018 -0.676109135150909424
1.35329997539520264 -12.9093999862670898 -4.59840011596679688 -0.497147202491760254 0.458544701337814331 0.73660123348236084
-1.5261000394821167 -12.538599967956543 -6.50239992141723633 -0.341132640838623047 0.616783857345581055 0.709370255470275879
-1.23160004615783691 -8.63959980010986328 0.0935999974608421326 0.312133103609085083 -0.673753499984741211 -0.669797837734222412
-5.31230020523071289 -5.69229984283447266 -4.89680004119873047 0.332497864961624146 -0.808520615100860596 -0.485530227422714233
-4.83769989013671875 -7.38819980621337891 -2.68969988822937012 -0.584002375602722168 0.434020698070526123 0.685979068279266357
-4.01469993591308594 -12.2821998596191406 -1.41470003128051758 0.763870298862457275 0.453801780939102173 -0.458874881267547607
0.922299981117248535 -11.7613000869750977 -5.50610017776489258 -0.616734325885772705 0.271971076726913452 0.738695144653320312
-3.60019993782043457 -6.07359981536865234 -2.2481999397277832 -0.597777128219604492 0.391875684261322021 0.699353992938995361
-3.76920008659362793 -12.8738002777099609 -1.72560000419616699 0.73285210132598877 0.588492453098297119 -0.341473937034606934
-2.79049992561340332 -4.59350013732910156 -2.31209993362426758 0.653708875179290771 -0.334284335374832153 -0.678909957408905029
-3.09135007858276367 -8.68210029602050781 -0.772899985313415527 0.435878664255142212 -0.544452965259552002 -0.716645479202270508
-7.42530012130737305 -11.0530004501342773 -6.56309986114501953 0.711306512355804443 0.638226211071014404 -0.294466257095336914
-4.1810002326965332 -15.0093002319335938 -3.36969995498657227 0.711843669414520264 0.146576613187789917 -0.686872541904449463
0.460700005292892456 -13.8625001907348633 -4.24609994888305664 0.260160863399505615 -0.714188158512115479 -0.649808883666992188
-1.84940004348754883 -14.360600471496582 -0.547200024127960205 0.578945636749267578 0.765903294086456299 -0.279667794704437256
-3.09109997749328613 -7.38660001754760742 -1.52040004730224609 -0.408842295408248901 0.298472225666046143 0.862416565418243408
0.878400027751922607 -10.9921998977661133 -5.74889993667602539 0.683178186416625977 -0.170601189136505127 -0.710044205188751221
-3.64939999580383301 -7.03779983520507812 -1.87539994716644287 0.411210089921951294 -0.307096004486083984 -0.858253061771392822
1.33800005912780762 -14.1231002807617188 -3.60570001602172852 -0.290312319993972778 0.681706368923187256 0.671561717987060547
-2.59010004997253418 -8.97270011901855469 -0.248400002717971802 -0.426922261714935303 0.561372578144073486 0.708941638469696045
2.10899996757507324 -10.3486995697021484 -4.31510019302368164 0.753552258014678955 0.0999863073229789734 -0.649739742279052734
-4.97370004653930664 -7.2080998420715332 -3.00250005722045898 -0.601915240287780762 0.518519163131713867 0.607318639755249023
-1.93410003185272217 -10.7629003524780273 1.22039997577667236 0.64888465404510498 -0.260359585285186768 -0.714955687522888184
-3.74550008773803711 -13.1667003631591797 -2.33750009536743164 0.696659266948699951 0.665331482887268066 -0.268327981233596802
-3.3125 -12.8593997955322266 -0.833800017833709717 0.740381419658660889 0.514546215534210205 -0.432524621486663818
-5.66709995269775391 -10.8521995544433594 -2.83419990539550781 0.762398183345794678 0.327614128589630127 -0.558048367500305176
-1.48749995231628418 -14.682499885559082 -0.777999997138977051 0.528564095497131348 0.848676085472106934 -0.0192066729068756104
-1.02639997005462646 -9.23209953308105469 0.818199992179870605 -0.312515765428543091 0.657580673694610596 0.685508251190185547
1.69990003108978271 -14.0166997909545898 -3.53670001029968262 -0.338214695453643799 0.610203683376312256 0.716423273086547852
-0.293799996376037598 -13.8201999664306641 -4.5353999137878418 0.159456938505172729 -0.777729272842407227 -0.608038365840911865
-8.06770038604736328 -7.45539999008178711 -5.16970014572143555 -0.677986323833465576 0.208839744329452515 0.704784035682678223
0.0604999996721744537 -9.05850028991699219 1.00880002975463867 -0.312515765428543091 0.657580673694610596 0.685508251190185547
-1.24199998378753662 -8.53789997100830078 -0.034000001847743988 0.310323864221572876 -0.671202301979064941 -0.673191308975219727
-3.88820004463195801 -6.23929977416992188 -2.41449999809265137 -0.638086616992950439 0.394836604595184326 0.661021590232849121
-7.52040004730224609 -8.40729999542236328 -4.49630022048950195 -0.700305521488189697 0.0757563412189483643 0.709812045097351074
2.83730006217956543 -11.2656002044677734 -3.67549991607666016 0.77295607328414917 0.0641075000166893005 -0.631212472915649414
-1.21679997444152832 -13.1948003768920898 -5.61450004577636719 0.191774770617485046 -0.773199796676635742 -0.604470431804656982
-5.33190011978149414 -7.40590000152587891 -3.09739995002746582 -0.556610524654388428 0.486906081438064575 0.673132359981536865
1.86119997501373291 -11.8683500289916992 -4.64970016479492188 -0.656016409397125244 0.22586822509765625 0.720156967639923096
-6.4141998291015625 -7.83739995956420898 -3.62225008010864258 0.619565308094024658 -0.270912408828735352 -0.736712455749511719
-2.78189992904663086 -4.1623997688293457 -2.54959988594055176 0.680410087108612061 -0.367471814155578613 -0.634039878845214844
-1.97360002994537354 -4.73829984664916992 -1.71420001983642578 0.558983087539672852 -0.323991090059280396 -0.763261198997497559
-3.20420002937316895 -5.24189996719360352 -2.33380007743835449 -0.602700352668762207 0.367016017436981201 0.708555936813354492
-2.92770004272460938 -15.7576999664306641 -3.06450009346008301 -0.380881637334823608 0.0309334676712751389 -0.924106240272521973
-5.85389995574951172 -5.15829992294311523 -5.7909998893737793 0.0234803389757871628 -0.846991658210754395 -0.531087338924407959
-4.8824000358581543 -11.3450002670288086 -2.01719999313354492 0.760207891464233398 0.312661439180374146 -0.56949692964553833
1.16600000858306885 -11.3940000534057617 -5.39989995956420898 -0.650036931037902832 0.209579691290855408 0.730430245399475098
-0.688000023365020752 -11.8787002563476562 -6.63390016555786133 0.451872169971466064 -0.495785564184188843 -0.741625368595123291
-2.2349998950958252 -13.9362001419067383 -0.384400010108947754 -0.650183379650115967 -0.676133871078491211 0.346561014652252197
-5.81689977645874023 -11.7677001953125 -4.12510013580322266 0.708032488822937012 0.620639026165008545 -0.336893528699874878
-2.04360008239746094 -8.59270000457763672 -0.28880000114440918 0.362323522567749023 -0.603062272071838379 -0.710659921169281006
-3.56410002708435059 -4.25269985198974609 -3.71320009231567383 0.789588868618011475 -0.520311474800109863 -0.325308084487915039
-4.2574000358581543 -10.2362003326416016 -1.04429996013641357 -0.70535510778427124 0.0528644919395446777 0.706880092620849609
-4.11709976196289062 -4.98080015182495117 -4.11619997024536133 0.838383138179779053 -0.507577717304229736 -0.198692306876182556
0.579599976539611816 -11.721099853515625 -5.79979991912841797 -0.635697126388549805 0.256511420011520386 0.728073477745056152
-5.10519981384277344 -4.96810007095336914 -6.2396998405456543 0.0170211661607027054 0.888858377933502197 0.457865804433822632
-0.991299986839294434 -9.36660003662109375 0.967800021171569824 -0.326984912157058716 0.644585907459259033 0.691078782081604004
-1.82589995861053467 -14.4005002975463867 -2.78130006790161133 -0.403364509344100952 -0.893629252910614014 -0.196783587336540222
-6.73029994964599609 -4.73099994659423828 -6.57119989395141602 -0.0920019373297691345 0.79692310094833374 0.597033679485321045
-0.344199985265731812 -12.5712003707885742 -5.90100002288818359 -0.386597692966461182 0.59281623363494873 0.706477940082550049
-2.19269990921020508 -16.6683006286621094 -3.46979999542236328 -0.26385188102722168 0.118033051490783691 -0.957314133644104004
-5.1008000373840332 -6.45674991607666016 -3.85330009460449219 0.574964761734008789 -0.590011000633239746 -0.566835582256317139
-0.504899978637695312 -11.6667995452880859 -6.64620018005371094 0.454455852508544922 -0.482645362615585327 -0.748681068420410156
-7.41020011901855469 -10.671299934387207 -5.54269981384277344 0.725471377372741699 0.585517346858978271 -0.361746817827224731
-2.12509989738464355 -13.0586996078491211 0.864700019359588623 0.755784451961517334 0.377882927656173706 -0.534784376621246338
-2.64730000495910645 -13.9528999328613281 -1.72839999198913574 -0.595253348350524902 -0.784837245941162109 0.172348290681838989
-5.69229984283447266 -9.71230030059814453 -2.55500006675720215 0.749402344226837158 0.0634492635726928711 -0.659067809581756592
-3.36505007743835449 -12.0330495834350586 -0.296750009059906006 0.771363139152526855 0.275472849607467651 -0.573684275150299072
-3.47300004959106445 -4.38980007171630859 -3.32010006904602051 0.756883382797241211 -0.51975858211517334 -0.396205157041549683
-3.82699990272521973 -5.07310009002685547 -3.22219991683959961 0.776168763637542725 -0.453382939100265503 -0.438184827566146851
-5.82180023193359375 -7.46029996871948242 -3.37940001487731934 0.52826380729675293 -0.418412566184997559 -0.738828957080841064
-1.09630000591278076 -14.506199836730957 -3.21790003776550293 -0.189558833837509155 -0.921575665473937988 -0.338771015405654907
-4.49399995803833008 -10.9626998901367188 -1.35360002517700195 0.766838908195495605 0.155049562454223633 -0.622830390930175781
-2.44530010223388672 -13.4319000244140625 0.0165999997407197952 0.71215355396270752 0.528782308101654053 -0.461764663457870483
-4.33269977569580078 -12.9083003997802734 -3.31710004806518555 0.698884308338165283 0.651182651519775391 -0.295841068029403687
-6.44589996337890625 -7.54400014877319336 -3.7827000617980957 0.616748631000518799 -0.268819481134414673 -0.739835917949676514
-5.33729982376098633 -9.56729984283447266 -2.19160008430480957 0.725746393203735352 -0.042422465980052948 -0.686653077602386475
-5.97919988632202148 -10.5944004058837891 -3.12199997901916504 0.768710851669311523 0.253266036510467529 -0.587315917015075684
-5.13089990615844727 -11.192500114440918 -2.2780001163482666 0.773987233638763428 0.282427757978439331 -0.566725969314575195
-4.60925006866455078 -5.90924978256225586 -3.8759000301361084 0.717463135719299316 -0.562726199626922607 -0.410592168569564819
-8.06009960174560547 -6.64069986343383789 -5.4608001708984375 -0.601388454437255859 0.348331451416015625 0.719025135040283203
-5.27390003204345703 -8.45499992370605469 -2.44140005111694336 -0.591865658760070801 0.292811214923858643 0.75097048282623291
-6.86140012741088867 -9.59150028228759766 -3.875 0.780617177486419678 0.149639517068862915 -0.606831789016723633
-3.06830000877380371 -11.1245002746582031 0.222200006246566772 0.730774879455566406 0.000339406949933618307 -0.682618439197540283
-3.8050999641418457 -7.30679988861083984 -1.87199997901916504 -0.461526811122894287 0.27853354811668396 0.8422660231590271
2.24850010871887207 -13.0347995758056641 -3.88369989395141602 -0.584619462490081787 0.413171380758285522 0.698218822479248047
-0.884999990463256836 -14.9876003265380859 -1.63139998912811279 0.375250935554504395 0.92028498649597168 0.11073525995016098
-3.83119988441467285 -8.59899997711181641 -1.30309998989105225 -0.480654031038284302 0.445850491523742676 0.755108654499053955
-6.84369993209838867 -4.99249982833862305 -6.21780014038085938 -0.19754377007484436 0.750374555587768555 0.630804657936096191
-6.95989990234375 -11.2010002136230469 -5.62130022048950195 0.705599129199981689 0.647989153861999512 -0.286774933338165283
-4.68289995193481445 -6.13730001449584961 -3.69250011444091797 0.700043022632598877 -0.554454684257507324 -0.450021982192993164
-5.97049999237060547 -10.5085000991821289 -3.0718998908996582 0.763468563556671143 0.248077511787414551 -0.596299707889556885
-7.10179996490478516 -10.0156002044677734 -4.36709976196289062 0.766219735145568848 0.352632284164428711 -0.537175774574279785
2.18619990348815918 -10.9076995849609375 -4.37109994888305664 0.743432700634002686 0.0582439228892326355 -0.666269838809967041
-2.40039992332458496 -5.39410018920898438 -1.73169994354248047 -0.533106505870819092 0.324133455753326416 0.781495332717895508
-4.08589982986450195 -11.3542995452880859 -0.966499984264373779 0.770598173141479492 0.234055250883102417 -0.592787086963653564
-3.74670004844665527 -12.342900276184082 -1.03949999809265137 0.758601903915405273 0.427481323480606079 -0.491714239120483398
-6.15250015258789062 -6.14779996871948242 -4.6314997673034668 -0.317069381475448608 0.660322368144989014 0.680765271186828613
-4.52670001983642578 -6.05490016937255859 -3.43910002708435059 0.741905808448791504 -0.509463250637054443 -0.435916304588317871
-8.48900032043457031 -10.022700309753418 -6.67990016937255859 0.708424270153045654 0.616277158260345459 -0.344002217054367065
-5.97069978713989258 -11.9892997741699219 -5.41610002517700195 0.684451878070831299 0.677059829235076904 -0.270398914813995361
-7.42259979248046875 -7.71070003509521484 -4.51809978485107422 -0.651883304119110107 0.179424881935119629 0.736786842346191406
0.910499989986419678 -13.1263999938964844 -4.72679996490478516 -0.418521225452423096 0.550262928009033203 0.722530782222747803
-3.32599997520446777 -10.2116003036499023 -0.165299996733665466 -0.652389764785766602 0.201017022132873535 0.730739176273345947
-1.80519998073577881 -13.0101003646850586 -6.00689983367919922 0.153312548995018005 -0.797484695911407471 -0.583535254001617432
-6.36880016326904297 -4.74830007553100586 -6.50880002975463867 -0.0161963589489459991 -0.845138013362884521 -0.534302711486816406
-3.29909992218017578 -8.00139999389648438 -1.44029998779296875 -0.402618646621704102 0.42752528190612793 0.809395074844360352
-1.31840002536773682 -9.22000026702880859 0.666800022125244141 -0.34936186671257019 0.646112322807312012 0.678590595722198486
-6.04799985885620117 -10.7663002014160156 -3.32360005378723145 0.764909684658050537 0.356580257415771484 -0.536436080932617188
-2.93810009956359863 -15.762700080871582 -2.84599995613098145 -0.224672332406044006 0.0106527004390954971 -0.974376142024993896
-3.4784998893737793 -3.85570001602172852 -4.29680013656616211 0.828897416591644287 -0.505125224590301514 -0.240369692444801331
-3.68429994583129883 -15.2628002166748047 -2.85739994049072266 0.215471521019935608 0.236518383026123047 -0.947433948516845703
-3.40470004081726074 -11.9271001815795898 -0.301899999380111694 0.769807159900665283 0.243242308497428894 -0.590110301971435547
-7.94420003890991211 -7.27780008316040039 -5.11049985885620117 0.684176921844482422 -0.225862100720405579 -0.693461060523986816
0.409999996423721313 -12.0734996795654297 -5.76039981842041016 -0.52897411584854126 0.415745437145233154 0.739825725555419922
-3.86610007286071777 -12.8556003570556641 -1.89690005779266357 0.706056356430053711 0.613135159015655518 -0.354329884052276611
-8.28369998931884766 -7.97100019454956055 -5.30410003662109375 0.701471984386444092 -0.0931880921125411987 -0.706578373908996582
-4.34770011901855469 -12.2776002883911133 -1.97780001163482666 0.759488761425018311 0.501214683055877686 -0.414681404829025269
-4.4702000617980957 -10.1178998947143555 -1.26940000057220459 0.710421919822692871 -0.0504672005772590637 -0.701964259147644043
-3.87560009956359863 -7.91569995880126953 -1.71619999408721924 -0.426196098327636719 0.347686886787414551 0.83514714241027832
-2.00819993019104004 -10.2819995880126953 0.961700022220611572 0.587671518325805664 -0.357748240232467651 -0.725712299346923828
0.136199995875358582 -14.5600996017456055 -3.35150003433227539 -0.0626505762338638306 0.876753926277160645 0.476841121912002563
-0.490999996662139893 -8.99790000915527344 0.773800015449523926 -0.312515765428543091 0.657580673694610596 0.685508251190185547
-7.91809988021850586 -10.3102998733520508 -5.98890018463134766 0.708424270153045654 0.616277158260345459 -0.344002217054367065
-5.51319980621337891 -11.4322996139526367 -3.0485999584197998 0.77802121639251709 0.469085484743118286 -0.417901694774627686
-4.42670011520385742 -10.8472995758056641 -1.25390005111694336 0.767473042011260986 0.106256447732448578 -0.632214128971099854
-3.57450008392333984 -7.85720014572143555 -1.59730005264282227 0.373627364635467529 -0.334215521812438965 -0.865276038646697998
-1.04149997234344482 -12.8880996704101562 -5.92239999771118164 -0.270819872617721558 0.702061951160430908 0.658608853816986084
1.66989994049072266 -12.74530029296875 -4.46759986877441406 -0.538539111614227295 0.398713529109954834 0.74229586124420166
-7.42105007171630859 -6.00990009307861328 -5.42455005645751953 0.438470035791397095 -0.58660811185836792 -0.680907487869262695
-6.08160018920898438 -10.5915002822875977 -3.26559996604919434 0.769207894802093506 0.271205931901931763 -0.578590154647827148
-6.20749998092651367 -5.49940013885498047 -5.38089990615844727 0.244589760899543762 -0.730138778686523438 -0.638022899627685547
-7.08640003204345703 -7.46540021896362305 -4.32170009613037109 0.627102434635162354 -0.233895033597946167 -0.742991030216217041
-7.08750009536743164 -7.0858001708984375 -4.50050020217895508 -0.542120754718780518 0.41158100962638855 0.732602298259735107
-0.586399972438812256 -13.1281003952026367 -5.47609996795654297 0.222909048199653625 -0.750084996223449707 -0.622642815113067627
-3.98810005187988281 -5.05679988861083984 -3.56480002403259277 0.809885263442993164 -0.497548997402191162 -0.31069415807723999
1.51789999008178711 -13.4987001419067383 -4.07620000839233398 -0.431857764720916748 0.553650140762329102 0.71201854944229126
-3.21009993553161621 -13.4874000549316406 -1.77199995517730713 -0.679525494575500488 -0.680452227592468262 0.2742806077003479
-4.00029993057250977 -7.37559986114501953 -1.96840000152587891 0.497401148080825806 -0.32935023307800293 -0.80257117748260498
-3.85520005226135254 -11.7202997207641602 -0.807200014591217041 0.771508574485778809 0.262268871068954468 -0.579646110534667969
-1.48339998722076416 -9.31569957733154297 0.666000008583068848 -0.40580981969833374 0.589479804039001465 0.698449671268463135
-2.33570003509521484 -12.0369997024536133 0.972400009632110596 0.737989664077758789 0.120840847492218018 -0.663904190063476562
-7.44019985198974609 -10.0894002914428711 -4.91720008850097656 0.767968118190765381 0.429314792156219482 -0.475303858518600464
-2.98340010643005371 -4.0560002326965332 -2.86439990997314453 0.709244370460510254 -0.476766973733901978 -0.519293427467346191
1.4747999906539917 -12.0122995376586914 -4.94759988784790039 -0.642715156078338623 0.265223950147628784 0.718730449676513672
-2.48810005187988281 -4.29255008697509766 -2.20880007743835449 0.650734543800354004 -0.32245674729347229 -0.687434494495391846
1.90750002861022949 -11.5195999145507812 -4.67089986801147461 0.717593073844909668 -0.0904579535126686096 -0.690563201904296875
-2.5494999885559082 -13.0279998779296875 0.253199994564056396 0.760333061218261719 0.383721441030502319 -0.524071991443634033
-7.72550010681152344 -10.2298002243041992 -5.52080011367797852 0.717773079872131348 0.559225380420684814 -0.41481173038482666
2.96479988098144531 -11.2718000411987305 -3.52760004997253418 0.77295607328414917 0.0641075000166893005 -0.631212472915649414
-4.79330015182495117 -6.91779994964599609 -3.00390005111694336 0.647678375244140625 -0.498056501150131226 -0.576586902141571045
-0.672900021076202393 -13.5382003784179688 -5.01329994201660156 0.167736232280731201 -0.78355252742767334 -0.598255813121795654
-7.15290021896362305 -10.3650999069213867 -4.698699951171875 0.753251552581787109 0.46664959192276001 -0.463519364595413208
-3.01570010185241699 -13.7143001556396484 -2.0206000804901123 0.67534404993057251 0.696561098098754883 -0.242307841777801514
-6.81650018692016602 -11.08489990234375 -5.01000022888183594 0.741489171981811523 0.573654532432556152 -0.34801483154296875
-0.363999992609024048 -14.3468999862670898 -3.73340010643005371 0.0019254967337474227 -0.876351833343505859 -0.481667667627334595
-4.22735023498535156 -5.0498499870300293 -4.78105020523071289 0.777639091014862061 -0.591230869293212891 -0.213830515742301941
-3.5625 -13.3306999206542969 -2.34240007400512695 0.682144224643707275 0.682789385318756104 -0.26168292760848999
-4.59180021286010742 -7.67659997940063477 -2.27579998970031738 -0.573024153709411621 0.3838692307472229 0.724077165126800537
-2.61080002784729004 -11.9983997344970703 0.657899975776672363 0.776937246322631836 0.141543924808502197 -0.613460540771484375
-4.4814000129699707 -7.95165014266967773 -2.06224989891052246 -0.541451692581176758 0.350295543670654297 0.764279484748840332
-6.66359996795654297 -7.48169994354248047 -3.9784998893737793 0.605591297149658203 -0.277364224195480347 -0.745874166488647461
-3.07660007476806641 -10.5775003433227539 0.150099992752075195 -0.686686396598815918 0.192432329058647156 0.701021850109100342
-0.620899975299835205 -14.8366003036499023 -2.57680010795593262 -0.203440099954605103 -0.924632549285888672 -0.321973174810409546
-4.59980010986328125 -11.5511999130249023 -1.74030005931854248 0.769826710224151611 0.330434709787368774 -0.546058356761932373
-6.14340019226074219 -8.57870006561279297 -3.13759994506835938 -0.674555301666259766 0.171188145875930786 0.71810150146484375
3.28279995918273926 -10.9974002838134766 -3.04789996147155762 0.774298489093780518 0.0761734917759895325 -0.628219246864318848
2.8078000545501709 -11.3156003952026367 -3.71900010108947754 0.77295607328414917 0.0641075000166893005 -0.631212472915649414
-4.16389989852905273 -4.94189977645874023 -4.80810022354125977 0.7997322678565979 -0.559527099132537842 -0.217618271708488464
1.78340005874633789 -11.0846996307373047 -4.82819986343383789 0.724981009960174561 -0.0170740764588117599 -0.688557147979736328
-0.900349974632263184 -14.8775501251220703 -2.15884995460510254 -0.301469326019287109 -0.935313105583190918 -0.185217738151550293
-0.656899988651275635 -13.6932001113891602 -4.79549980163574219 -0.138102009892463684 0.809094250202178955 0.571221768856048584
-1.84860002994537354 -9.39620018005371094 0.522400021553039551 -0.422186881303787231 0.545167744159698486 0.724258482456207275
-7.52720022201538086 -9.94340038299560547 -4.93529987335205078 0.792353272438049316 0.339130699634552002 -0.507116019725799561
-3.57229995727539062 -10.8435001373291016 -0.310900002717971802 0.727634429931640625 0.0204184763133525848 -0.685661137104034424
-6.69360017776489258 -5.7452998161315918 -5.28380012512207031 0.324266642332077026 -0.702602803707122803 -0.63340383768081665
0.983699977397918701 -14.0143003463745117 -3.87179994583129883 0.250448077917098999 -0.700365960597991943 -0.668403506278991699
-5.70499992370605469 -9.9430999755859375 -2.58470010757446289 0.776392757892608643 0.0705766379833221436 -0.626285254955291748
-1.46800005435943604 -12.5944995880126953 -6.41720008850097656 -0.341132640838623047 0.616783857345581055 0.709370255470275879
-3.67989993095397949 -4.15649986267089844 -4.48190021514892578 0.844144761562347412 -0.492241650819778442 -0.212409481406211853
-4.70499992370605469 -5.6241002082824707 -4.82520008087158203 0.618136048316955566 -0.729288697242736816 -0.293335646390914917
-0.912100017070770264 -14.9145002365112305 -1.96979999542236328 0.316108345985412598 0.93492501974105835 0.161216437816619873
-4.00220012664794922 -4.68380022048950195 -4.54809999465942383 0.839392125606536865 -0.515634059906005859 -0.171879023313522339
-7.50699996948242188 -10.868499755859375 -6.18680000305175781 0.722992181777954102 0.629582464694976807 -0.284443646669387817
-5.62830018997192383 -9.27810001373291016 -2.51600003242492676 -0.697650372982025146 0.116795510053634644 0.706854104995727539
-3.13730001449584961 -10.1288003921508789 -0.026000000536441803 -0.613500595092773438 0.27763715386390686 0.739279806613922119
-6.53970003128051758 -11.4902000427246094 -5.27780008316040039 0.679995894432067871 0.669728100299835205 -0.298445731401443481
-4.86499977111816406 -6.30109977722167969 -3.84850001335144043 0.629986047744750977 -0.589220702648162842 -0.505901694297790527
-4.19899988174438477 -5.22480010986328125 -3.87190008163452148 0.825163304805755615 -0.518705964088439941 -0.223717838525772095
-1.3880000114440918 -14.2604999542236328 -3.71020007133483887 -0.161971420049667358 -0.921555757522583008 -0.352845907211303711
-1.64760005474090576 -14.440699577331543 -2.90429997444152832 -0.236423283815383911 -0.930016696453094482 -0.281376957893371582
-1.62619996070861816 -9.89249992370605469 1.01534998416900635 0.447055131196975708 -0.46374860405921936 -0.764904558658599854
-2.55080008506774902 -8.48690032958984375 -0.635800004005432129 0.394348323345184326 -0.576704680919647217 -0.715472698211669922
1.34249997138977051 -13.5724000930786133 -4.12020015716552734 -0.396174371242523193 0.580157160758972168 0.711662530899047852
-0.603699982166290283 -13.8655996322631836 -4.5363001823425293 0.115781195461750031 -0.825197041034698486 -0.552851319313049316
-1.57920002937316895 -9.37320041656494141 0.661499977111816406 -0.419584840536117554 0.573115408420562744 0.703908562660217285
-4.1837000846862793 -8.36709976196289062 -1.69099998474121094 -0.471220284700393677 0.411367893218994141 0.780210196971893311
-5.52360010147094727 -6.09740018844604492 -4.42329978942871094 0.381653875112533569 -0.71363908052444458 -0.587417721748352051
-2.56859993934631348 -8.60529994964599609 -0.537100017070770264 -0.420588761568069458 0.558718264102935791 0.714800000190734863
-6.60690021514892578 -10.3118000030517578 -3.84299993515014648 0.776900172233581543 0.343265324831008911 -0.527821063995361328
3.08089995384216309 -10.9273996353149414 -3.28489995002746582 0.774298489093780518 0.0761734917759895325 -0.628219246864318848
-4.43830013275146484 -5.5643000602722168 -4.00390005111694336 0.795700311660766602 -0.550631582736968994 -0.252320975065231323
-2.6530001163482666 -5.30590009689331055 -1.90030002593994141 -0.533106505870819092 0.324133455753326416 0.781495332717895508
-3.38089990615844727 -8.62609958648681641 -0.991100013256072998 -0.441709667444229126 0.506145000457763672 0.740749478340148926
-7.65670013427734375 -10.4651002883911133 -5.70949983596801758 0.715469956398010254 0.599157452583312988 -0.35932314395904541
-0.047699999064207077 -11.2778997421264648 -6.49300003051757812 -0.604254603385925293 0.310437291860580444 0.733829021453857422
-3.69749999046325684 -11.3484001159667969 -0.493400007486343384 0.743772208690643311 0.164558470249176025 -0.647860586643218994
-3.92239999771118164 -12.9801998138427734 -2.30320000648498535 0.705464184284210205 0.649692177772521973 -0.283232063055038452
-2.4328000545501709 -8.97679996490478516 -0.151299998164176941 0.410975486040115356 -0.557792186737060547 -0.721087396144866943
-2.80410003662109375 -15.8910999298095703 -2.74379992485046387 -0.27351340651512146 0.175522640347480774 -0.945717811584472656
1.8760000467300415 -13.9935998916625977 -3.46499991416931152 -0.339693546295166016 0.618572413921356201 0.70850294828414917
-2.8087000846862793 -15.9031000137329102 -2.43409991264343262 0.131282135844230652 -0.429219990968704224 0.893607974052429199
1.1885000467300415 -12.2954998016357422 -5.06050014495849609 -0.577490866184234619 0.362154662609100342 0.73167496919631958
-1.81110000610351562 -13.6665000915527344 -4.92049980163574219 -0.0354667305946350098 -0.867059111595153809 -0.496941268444061279
-7.82690000534057617 -6.43860006332397461 -5.39639997482299805 -0.546800434589385986 0.410652399063110352 0.729639589786529541
-5.43989992141723633 -4.77099990844726562 -6.5858001708984375 0.0186490472406148911 0.881027638912200928 0.472697079181671143
-5.93050003051757812 -4.68380022048950195 -6.64879989624023438 0.00191250455100089312 0.856327533721923828 0.516429603099822998
-3.24119997024536133 -11.5261001586914062 0.00749999983236193657 0.749259889125823975 0.100706227123737335 -0.65457463264465332
0.202099993824958801 -13.3842000961303711 -4.86859989166259766 -0.299562335014343262 0.710333645343780518 0.636936843395233154
-4.0699000358581543 -9.49120044708251953 -1.04030001163482666 0.606233179569244385 -0.260050833225250244 -0.751568257808685303
-6.45830011367797852 -11.2069997787475586 -4.48029994964599609 0.757439255714416504 0.524552524089813232 -0.38875502347946167
-7.44469976425170898 -7.2060999870300293 -4.7202000617980957 -0.587296724319458008 0.359673291444778442 0.725063920021057129
-0.855899989604949951 -13.935999870300293 -4.45539999008178711 0.0196359828114509583 -0.864019989967346191 -0.503074407577514648
-7.39449977874755859 -7.97410011291503906 -4.42910003662109375 -0.677293777465820312 0.164315089583396912 0.717128753662109375
-2.54329991340637207 -12.734100341796875 0.466699987649917603 0.777621626853942871 0.327428489923477173 -0.536744952201843262
-6.03499984741210938 -10.4427003860473633 -3.12809991836547852 0.768710851669311523 0.253266036510467529 -0.587315917015075684
-7.07779979705810547 -7.88980007171630859 -4.16179990768432617 0.628386080265045166 -0.232239469885826111 -0.742425620555877686
0.246299996972084045 -13.1493997573852539 -5.07469987869262695 0.332450240850448608 -0.663910329341888428 -0.669850647449493408
-3.15529990196228027 -13.6307001113891602 -2.16770005226135254 -0.68011707067489624 -0.685804307460784912 0.259062230587005615
-0.531700015068054199 -8.90079975128173828 0.640500009059906006 -0.312515765428543091 0.657580673694610596 0.685508251190185547
-4.21059989929199219 -12.1485004425048828 -1.60559999942779541 0.757461607456207275 0.449877142906188965 -0.473141074180603027
