ply
format ascii 1.0
element vertex 380
property float x
property float y
property float z
property float nx
property float ny
property float nz
end_header
2.42370009422302246 6.35680007934570312 0.367599993944168091 -0.388784468173980713 -0.522009611129760742 0.759178876876831055
5.18590021133422852 11.3809995651245117 -1.68809998035430908 -0.582269489765167236 -0.744254648685455322 -0.327180773019790649
4.68069982528686523 10.842900276184082 -0.108099997043609619 0.461395591497421265 0.625923633575439453 0.628755688667297363
0.78479999303817749 7.92189979553222656 0.555899977684020996 0.308876097202301025 0.37854573130607605 -0.87252432107925415
8.58479976654052734 10.3292999267578125 -1.37249994277954102 -0.349999964237213135 0.620975732803344727 0.701348066329956055
12.1687002182006836 9.47900009155273438 -1.32400000095367432 -0.513005197048187256 -0.137373223900794983 -0.847321808338165283
4.3758997917175293 7.77629995346069336 1.17050004005432129 0.00573877245187759399 -0.0142071973532438278 0.99988257884979248
6.60239982604980469 5.55439996719360352 1.47309994697570801 0.0431816689670085907 0.412657350301742554 0.909862220287322998
4.83939981460571289 11.2278995513916016 -0.719200015068054199 -0.50932079553604126 -0.713763415813446045 -0.480764150619506836
7.28639984130859375 10.6337995529174805 -3.46900010108947754 0.601048529148101807 -0.697800397872924805 -0.389634847640991211
1.65160000324249268 5.42390012741088867 -1.68959999084472656 -0.618543565273284912 -0.767973065376281738 0.166196435689926147
3.33439993858337402 4.75400018692016602 0.805899977684020996 -0.604243576526641846 0.469394654035568237 0.643862068653106689
6.14580011367797852 7.83570003509521484 0.957199990749359131 0.183205917477607727 0.276241183280944824 0.943465113639831543
11.9258003234863281 8.91119956970214844 -1.13289999961853027 0.506991028785705566 0.0782763063907623291 0.858389735221862793
7.44000005722045898 9.44169998168945312 -0.971300005912780762 0.263674914836883545 0.66757655143737793 0.696288108825683594
9.24020004272460938 2.16449999809265137 -0.271600008010864258 0.808542251586914062 -0.419735103845596313 0.412409871816635132
2.52209997177124023 4.68249988555908203 -1.21599996089935303 0.760667026042938232 0.639683842658996582 -0.110409259796142578
6.46269989013671875 5.22730016708374023 1.64470005035400391 0.0372693836688995361 0.450314462184906006 0.892091870307922363
1.05095005035400391 6.14085006713867188 -0.995199978351593018 -0.547504186630249023 -0.737335205078125 0.395696789026260376
2.13380002975463867 7.44680023193359375 0.814999997615814209 -0.269850343465805054 -0.348972290754318237 0.897440314292907715
9.70979976654052734 7.79500007629394531 0.0606000013649463654 0.280885070562362671 0.311032652854919434 0.907943964004516602
4.17329978942871094 8.45790004730224609 1.13559997081756592 0.104719072580337524 0.122013606131076813 0.986988663673400879
3.03364992141723633 7.41435003280639648 1.01775002479553223 -0.184692308306694031 -0.26446262001991272 0.946545422077178955
10.1760997772216797 4.83599996566772461 -0.0548000000417232513 0.70568394660949707 -0.191077783703804016 0.682275235652923584
5.82889986038208008 6.02950000762939453 1.16460001468658447 -0.0932682529091835022 0.242688745260238647 0.965610265731811523
6.93109989166259766 9.59809970855712891 -0.66939997673034668 0.427094757556915283 0.717786610126495361 0.54988396167755127
2.82109999656677246 4.26980018615722656 0.862699985504150391 0.6752777099609375 -0.571685194969177246 -0.466021448373794556
3.0931999683380127 4.31650018692016602 1.14509999752044678 0.643122613430023193 -0.58253854513168335 -0.497033298015594482
2.85260009765625 6.18520021438598633 0.466699987649917603 -0.375193178653717041 -0.504570662975311279 0.777585089206695557
6.08279991149902344 9.94589996337890625 -0.287099987268447876 -0.477873504161834717 -0.665195941925048828 -0.573717057704925537
9.15069961547851562 9.87199974060058594 -0.85689997673034668 -0.168265357613563538 0.535546541213989258 0.827572762966156006
3.98329997062683105 8.09329986572265625 1.17009997367858887 -0.0110501833260059357 0.0114633170887827873 0.999873220920562744
2.04530000686645508 8.92780017852783203 1.14520001411437988 0.0969810709357261658 0.0773123875260353088 -0.992278933525085449
3.91449999809265137 11.6506004333496094 -0.345999985933303833 -0.439489364624023438 -0.710048317909240723 -0.55016404390335083
5.87349987030029297 8.40880012512207031 0.835399985313415527 0.207663580775260925 0.306260734796524048 0.929021120071411133
8.32059955596923828 5.60160017013549805 1.1259000301361084 -0.344166994094848633 -0.234925523400306702 -0.909042954444885254
2.98920011520385742 7.65789985656738281 1.06560003757476807 -0.149414226412773132 -0.203353747725486755 0.96763765811920166
2.94849991798400879 9.86030006408691406 1.06060004234313965 -0.141672208905220032 -0.205614358186721802 -0.968324184417724609
10.0300998687744141 2.88750004768371582 -1.38670003414154053 0.829806387424468994 -0.496841311454772949 0.254106372594833374
2.79340004920959473 5.19140005111694336 -0.31679999828338623 0.749421238899230957 0.315913766622543335 -0.581864476203918457
3.6716001033782959 8.71039962768554688 1.14810001850128174 0.0477128103375434875 0.0908287018537521362 0.994722902774810791
9.62740039825439453 2.26889991760253906 -1.45270001888275146 0.815464138984680176 -0.492674469947814941 0.303792804479598999
8.04510021209716797 9.25710010528564453 -0.693300008773803711 -0.0312398113310337067 0.625949501991271973 0.779237627983093262
11.1998996734619141 9.86330032348632812 -1.0074000358581543 -0.268888086080551147 -0.305043607950210571 -0.913590490818023682
10.9284000396728516 5.22335004806518555 -0.79385000467300415 0.76872551441192627 -0.305171430110931396 0.562077820301055908
4.21759986877441406 10.0120000839233398 0.693499982357025146 0.326878547668457031 0.401154041290283203 0.855701982975006104
11.5638504028320312 9.40509986877441406 -1.01909995079040527 0.357359796762466431 0.236024677753448486 0.903651654720306396
3.7593998908996582 8.55725002288818359 1.15590000152587891 0.0426731370389461517 0.0915909856557846069 0.994881927967071533
7.82760000228881836 11.1696996688842773 -3.28690004348754883 0.57250213623046875 -0.718375086784362793 -0.395194262266159058
5.2396998405456543 10.7974004745483398 -0.538699984550476074 -0.505738019943237305 -0.668822586536407471 -0.544890284538269043
2.94600009918212891 6.86390018463134766 0.828899979591369629 -0.261147528886795044 -0.328958719968795776 0.907517552375793457
5.71000003814697266 5.48460006713867188 1.44710004329681396 -0.103093154728412628 0.437494009733200073 0.893292129039764404
3.80920004844665527 8.42169952392578125 1.16279995441436768 0.0151574984192848206 0.0588781684637069702 0.998150110244750977
12.6148500442504883 6.37615013122558594 -2.94799995422363281 0.814381182193756104 -0.46764710545539856 0.343641519546508789
10.0359001159667969 10.1652002334594727 -0.96249997615814209 0.0119933001697063446 0.459934502840042114 0.887871861457824707
11.4847002029418945 5.48710012435913086 -1.46029996871948242 0.80743098258972168 -0.369471490383148193 0.459941357374191284
10.8685998916625977 9.86810016632080078 -0.925300002098083496 -0.20688222348690033 -0.33408549427986145 -0.919557869434356689
10.7645998001098633 7.50460004806518555 -0.338699996471405029 0.465508252382278442 0.0858796685934066772 0.880867063999176025
8.74664974212646484 10.8203001022338867 -1.74220001697540283 -0.376304894685745239 0.633599400520324707 0.675978183746337891
10.6359996795654297 5.38000011444091797 -0.389600008726119995 0.718830466270446777 -0.175349310040473938 0.672707498073577881
10.1213998794555664 4.27080011367797852 -0.182899996638298035 0.759905338287353516 -0.274595499038696289 0.589186906814575195
6.56319999694824219 9.66539955139160156 -0.384999990463256836 -0.48756253719329834 -0.663383305072784424 -0.567631363868713379
10.7334003448486328 9.37919998168945312 -0.723399996757507324 0.231894254684448242 0.333866685628890991 0.913650989532470703
8.38290023803710938 3.46219992637634277 1.33469998836517334 0.606854379177093506 -0.0280627533793449402 0.794317483901977539
0.60130000114440918 6.34770011901855469 -1.29670000076293945 0.599877655506134033 0.756370961666107178 -0.26086348295211792
5.39410018920898438 10.7760000228881836 -0.67640000581741333 -0.531050264835357666 -0.682029962539672852 -0.502812862396240234
5.28410005569458008 9.44760036468505859 0.569199979305267334 0.35681384801864624 0.45474708080291748 0.816020190715789795
7.48519992828369141 8.14019966125488281 0.345299988985061646 0.326554775238037109 0.562166154384613037 0.759823143482208252
4.00899982452392578 7.77969980239868164 1.16840004920959473 0.0320376791059970856 0.0476565100252628326 -0.998349845409393311
12.0570001602172852 5.56559991836547852 -2.73000001907348633 0.825538337230682373 -0.487890571355819702 0.283635795116424561
11.200200080871582 6.76510000228881836 -0.651199996471405029 0.636121392250061035 -0.0704103708267211914 0.768369674682617188
11.1241998672485352 4.23400020599365234 -2.47569990158081055 0.833958566188812256 -0.484853923320770264 0.263495296239852905
11.368800163269043 6.33970022201538086 -0.897700011730194092 0.733413338661193848 -0.220130607485771179 0.643154263496398926
10.3512001037597656 4.91669988632202148 -0.216800004243850708 0.7145041823387146 -0.201910257339477539 0.669862687587738037
9.29039955139160156 4.35099983215332031 0.681699991226196289 0.613597631454467773 -0.069713294506072998 0.786535441875457764
10.4356002807617188 7.11339998245239258 -0.114299997687339783 0.436324447393417358 0.089985974133014679 0.895278453826904297
8.19429969787597656 10.4549999237060547 -1.72210001945495605 -0.405723303556442261 0.641497790813446045 0.651052355766296387
6.3968501091003418 10.4281997680664062 -1.57379996776580811 0.50786745548248291 0.756673872470855713 0.411722302436828613
10.1737003326416016 5.8991999626159668 0.096799999475479126 0.595077276229858398 -0.0245810914784669876 0.803292512893676758
0.254200011491775513 6.55210018157958984 -1.46430003643035889 0.600569367408752441 0.762251794338226318 -0.241430416703224182
7.98350000381469727 8.90159988403320312 -0.437900006771087646 0.0277536176145076752 0.639299154281616211 0.768457114696502686
0.954299986362457275 5.88380002975463867 -2.25219988822937012 0.59901505708694458 0.792082548141479492 -0.117414578795433044
1.17100000381469727 7.21649980545043945 0.302700012922286987 -0.375287264585494995 -0.505474865436553955 0.776952147483825684
4.26760005950927734 3.5457000732421875 2.47740006446838379 0.143172979354858398 -0.454351127147674561 -0.879242002964019775
5.03709983825683594 5.33010005950927734 1.38010001182556152 -0.250136077404022217 0.461129248142242432 0.851347029209136963
6.87930011749267578 9.62639999389648438 -0.652400016784667969 -0.42055279016494751 -0.728989481925964355 -0.540101587772369385
12.1295003890991211 9.15540027618408203 -1.27190005779266357 -0.538299620151519775 -0.0780762284994125366 -0.839129090309143066
1.84290003776550293 5.29339981079101562 -1.6259000301361084 -0.637738287448883057 -0.758180737495422363 0.135837584733963013
2.51049995422363281 8.58139991760253906 1.14619994163513184 -0.0576320476830005646 -0.0831314623355865479 0.99487072229385376
9.83240032196044922 10.2509002685546875 -1.01569998264312744 -0.0547102577984333038 0.47578197717666626 0.877860069274902344
1.86210000514984131 7.54969978332519531 0.772499978542327881 -0.299537748098373413 -0.381171673536300659 0.874634385108947754
1.31509995460510254 5.716400146484375 -1.55289995670318604 -0.581833839416503906 -0.784077465534210205 0.216083154082298279
5.99800014495849609 10.7693996429443359 -1.71679997444152832 0.571644425392150879 0.753553211688995361 0.324623227119445801
3.71670007705688477 5.10839986801147461 0.746500015258789062 0.363927334547042847 -0.372974008321762085 -0.853491246700286865
9.91720008850097656 2.8796999454498291 -0.997799992561340332 0.807298123836517334 -0.491927683353424072 0.326001405715942383
7.98944997787475586 3.79579997062683105 1.59095001220703125 0.534251630306243896 0.0455406457185745239 0.844097912311553955
3.49900007247924805 9.47854995727539062 1.05215001106262207 0.16499735414981842 0.205726593732833862 0.964599609375
7.93889999389648438 2.6668999195098877 1.62759995460510254 0.607449114322662354 -0.0716026723384857178 0.791124939918518066
2.5232999324798584 9.31420040130615234 1.16540002822875977 0.0117527320981025696 0.0800990089774131775 0.996717631816864014
2.36770009994506836 8.16300010681152344 1.07219994068145752 -0.160010784864425659 -0.194203808903694153 0.967823028564453125
6.16580009460449219 3.5569000244140625 2.38599991798400879 0.243304207921028137 0.309098988771438599 0.919380724430084229
5.58085012435913086 3.5964500904083252 2.47510004043579102 -0.0728265866637229919 -0.393298596143722534 -0.916521966457366943
3.70160007476806641 10.7182998657226562 0.533999979496002197 -0.326062828302383423 -0.488069772720336914 -0.80961155891418457
4.70270013809204102 3.56850004196166992 2.51360011100769043 0.0157516598701477051 -0.44373786449432373 -0.89601820707321167
8.19200038909912109 10.0268001556396484 -1.29499995708465576 0.373347580432891846 -0.663798809051513672 -0.648060739040374756
12.4751996994018555 6.90609979629516602 -2.06270003318786621 0.795526504516601562 -0.353372901678085327 0.492204397916793823
7.48040008544921875 9.99390029907226562 -1.76090002059936523 0.0588755235075950623 -0.826118886470794678 -0.560411632061004639
9.88300037384033203 2.64050006866455078 -1.44599997997283936 0.82323688268661499 -0.497746556997299194 0.273000746965408325
13.3523502349853516 7.27064990997314453 -3.60774993896484375 0.81838613748550415 -0.464304566383361816 0.338622838258743286
8.41250038146972656 8.73910045623779297 -0.240400001406669617 -0.0166640058159828186 0.548989295959472656 0.835663199424743652
11.0150995254516602 6.82250022888183594 -0.492500007152557373 0.617511749267578125 -0.0458611026406288147 0.785223543643951416
12.1829004287719727 5.59959983825683594 -3.3264000415802002 0.823301553726196289 -0.497234731912612915 0.27373737096786499
9.37454986572265625 3.80859994888305664 0.507250010967254639 0.723744213581085205 -0.176740244030952454 0.667051136493682861
10.8486003875732422 4.70620012283325195 -0.979200005531311035 0.780038177967071533 -0.327549159526824951 0.533152937889099121
7.79400014877319336 4.39400005340576172 1.60739994049072266 0.373051285743713379 0.191477224230766296 0.907837629318237305
10.454899787902832 4.14550018310546875 -0.739300012588500977 0.798108220100402832 -0.369958251714706421 0.475556671619415283
5.48269987106323242 11.1872997283935547 -1.84280002117156982 0.575363516807556152 0.752102792263031006 0.32140040397644043
12.5228996276855469 7.72749996185302734 -1.73179996013641357 0.75609898567199707 -0.238142073154449463 0.609592258930206299
2.96889996528625488 10.4520998001098633 0.898999989032745361 -0.236401990056037903 -0.301540911197662354 -0.923681318759918213
5.06409978866577148 7.33750009536743164 1.16840004920959473 0.0284087415784597397 0.0283483657985925674 0.999194324016571045
5.30380010604858398 11.3255996704101562 -1.85249996185302734 -0.578142881393432617 -0.746505320072174072 -0.32936394214630127
9.06949996948242188 8.99160003662109375 -0.341300010681152344 -0.0218187496066093445 0.48270648717880249 0.875510334968566895
9.71370029449462891 3.00454998016357422 -0.37220001220703125 0.798599362373352051 -0.391527175903320312 0.4571056067943573
4.53789997100830078 5.60589981079101562 0.947600007057189941 0.254581093788146973 -0.0548067912459373474 -0.965497136116027832
2.60890007019042969 4.98759984970092773 -0.721400022506713867 0.774446070194244385 0.476395189762115479 -0.416270226240158081
4.62260007858276367 6.70800018310546875 1.11629998683929443 -0.131582573056221008 -0.170463889837265015 0.97653883695602417
10.3920001983642578 4.50680017471313477 -0.428799986839294434 0.757242202758789062 -0.286180734634399414 0.587098658084869385
2.09030008316040039 6.90980005264282227 0.548300027847290039 0.35165819525718689 0.443700969219207764 -0.824297249317169189
3.08800005912780762 7.76469993591308594 1.09819996356964111 -0.115605510771274567 -0.127757176756858826 0.985044896602630615
0.481900006532669067 6.75120019912719727 -0.694199979305267334 0.583883285522460938 0.65245431661605835 -0.483098030090332031
0.422300010919570923 6.30240011215209961 -2.61450004577636719 -0.586890518665313721 -0.796411812305450439 0.145902976393699646
9.44534969329833984 10.7473001480102539 -1.39804995059967041 -0.200428858399391174 0.560568153858184814 0.803487181663513184
11.924799919128418 9.74790000915527344 -1.24269998073577881 -0.469631165266036987 -0.141546130180358887 -0.871442079544067383
4.57600021362304688 8.21339988708496094 1.12769997119903564 0.101052090525627136 0.105069294571876526 0.989317417144775391
1.07033336162567139 7.79383325576782227 0.603333353996276855 0.308876097202301025 0.37854573130607605 -0.87252432107925415
12.097900390625 6.17089986801147461 -1.9859999418258667 0.812266051769256592 -0.401647120714187622 0.4229697585105896
12.552800178527832 6.66340017318725586 -2.39700007438659668 0.812903881072998047 -0.443857133388519287 0.377065122127532959
10.1843996047973633 3.04710006713867188 -1.62039995193481445 0.831747889518737793 -0.498140305280685425 0.245054379105567932
9.51539993286132812 8.54419994354248047 -0.161100000143051147 0.126548618078231812 0.368924528360366821 0.920804083347320557
0.0896999984979629517 6.90350008010864258 -0.938899993896484375 0.623026669025421143 0.670599639415740967 -0.40265849232673645
3.0185999870300293 9.95419979095458984 1.02690005302429199 -0.181941777467727661 -0.199821323156356812 -0.962792098522186279
2.1940000057220459 5.77110004425048828 -0.278200000524520874 -0.491529673337936401 -0.598050057888031006 0.63303607702255249
5.76940011978149414 5.01179981231689453 1.74860000610351562 -0.0404028221964836121 0.483496338129043579 0.874413490295410156
6.7266998291015625 8.4897003173828125 0.48890000581741333 0.337089687585830688 0.478351771831512451 0.810894668102264404
4.9123997688293457 4.57530021667480469 1.90450000762939453 0.169499501585960388 -0.558079779148101807 -0.812291145324707031
5.89230012893676758 9.73219966888427734 0.0612000003457069397 -0.471281260251998901 -0.596323609352111816 -0.649840116500854492
12.5514001846313477 6.14550018310546875 -3.27559995651245117 0.811556398868560791 -0.49528956413269043 0.309942662715911865
10.3676996231079102 10.1441001892089844 -0.965300023555755615 -0.0702841728925704956 -0.436677545309066772 -0.896868348121643066
11.2378997802734375 5.96190023422241211 -0.870899975299835205 0.751384913921356201 -0.220951765775680542 0.621772527694702148
4.74020004272460938 9.63179969787597656 0.685400009155273438 0.319845527410507202 0.404873162508010864 0.856607615947723389
8.21240043640136719 9.97935009002685547 -1.23950004577636719 -0.343261778354644775 0.661772489547729492 0.66650468111038208
4.99020004272460938 10.6406002044677734 -0.142100006341934204 -0.478401154279708862 -0.632597625255584717 -0.609058797359466553
3.09369993209838867 4.22720003128051758 1.26479995250701904 0.568169891834259033 -0.599837958812713623 -0.563362598419189453
8.90890026092529297 3.38220000267028809 0.874100029468536377 0.66745913028717041 -0.151714861392974854 0.729027390480041504
7.72870016098022461 2.92529988288879395 1.79700005054473877 0.534422218799591064 0.0278717093169689178 0.844757974147796631
10.1695995330810547 10.3452997207641602 -1.0578000545501709 -0.0307177044451236725 -0.486297875642776489 -0.873252987861633301
5.66289997100830078 5.64130020141601562 1.32679998874664307 -0.172306671738624573 0.40219414234161377 0.899194240570068359
3.67740011215209961 6.27110004425048828 0.815400004386901855 -0.283117234706878662 -0.277389407157897949 0.918095707893371582
9.08759975433349609 8.24940013885498047 0.0216000005602836609 0.11077253520488739 0.393852859735488892 0.912474334239959717
7.35774993896484375 3.96790003776550293 1.8800499439239502 -0.371718943119049072 -0.201957300305366516 -0.906111598014831543
3.6408998966217041 10.0952997207641602 0.841199994087219238 0.252123415470123291 0.340758830308914185 0.90571361780166626
9.8516998291015625 4.7248997688293457 0.240400001406669617 0.685961484909057617 -0.150036975741386414 0.712001204490661621
2.60299992561340332 6.84859991073608398 0.713500022888183594 -0.298697024583816528 -0.394891411066055298 0.868815779685974121
3.00530004501342773 8.73340034484863281 1.17200005054473877 -0.00915760546922683716 -0.0105774113908410072 0.999902129173278809
9.86779975891113281 10.8299999237060547 -1.36629998683929443 0.181529805064201355 -0.56523430347442627 -0.804709374904632568
2.87840008735656738 7.45489978790283203 1.00049996376037598 -0.21360643208026886 -0.291837126016616821 0.932310760021209717
13.2838001251220703 7.60970020294189453 -2.91680002212524414 0.83369976282119751 -0.371507823467254639 0.40856662392616272
2.14199995994567871 7.57649993896484375 0.864199995994567871 0.243029415607452393 0.343521356582641602 -0.90715479850769043
9.46469974517822266 4.25530004501342773 0.515600025653839111 0.679721355438232422 -0.120338022708892822 0.723531365394592285
7.61180019378662109 6.26550006866455078 1.07400000095367432 0.189307093620300293 0.311283290386199951 0.931270956993103027
10.0382003784179688 2.93759989738464355 -1.28299999237060547 0.81574481725692749 -0.49031376838684082 0.306843310594558716
1.59940004348754883 6.66379976272583008 0.13439999520778656 -0.395714551210403442 -0.541769921779632568 0.741549313068389893
1.34560000896453857 8.22490024566650391 0.878300011157989502 0.296662360429763794 0.291927516460418701 -0.909268796443939209
7.63369989395141602 10.1907997131347656 -1.8945000171661377 0.300101637840270996 -0.759488105773925781 -0.577162742614746094
9.72039985656738281 11.3346996307373047 -1.76170003414154053 0.242134541273117065 -0.599643826484680176 -0.762756884098052979
12.295100212097168 8.17469978332519531 -1.41270005702972412 0.638081729412078857 -0.0636503696441650391 0.767333269119262695
8.05319976806640625 3.17750000953674316 1.56830000877380371 0.585265517234802246 0.00494063319638371468 0.810826659202575684
5.17000007629394531 4.82770013809204102 1.78559994697570801 -0.128875449299812317 0.56171870231628418 0.817228972911834717
6.54729986190795898 3.03970003128051758 2.41440010070800781 -0.349177062511444092 -0.205260813236236572 -0.914299368858337402
13.3339004516601562 7.50829982757568359 -3.14190006256103516 0.817272722721099854 -0.458382666110992432 0.349214345216751099
7.75579977035522461 11.2810001373291016 -3.97359991073608398 0.572563707828521729 -0.723142921924591064 -0.386309593915939331
7.56559991836547852 4.34469985961914062 1.71480000019073486 0.34632951021194458 0.227925926446914673 0.910003125667572021
9.15569972991943359 6.39709997177124023 0.6194000244140625 0.413614064455032349 0.176706910133361816 0.893139481544494629
11.8786001205444336 5.90929985046386719 -1.81239998340606689 0.804847657680511475 -0.387156456708908081 0.449811220169067383
6.78690004348754883 6.28410005569458008 1.15230000019073486 0.0841004922986030579 0.267233729362487793 0.959954798221588135
9.02610015869140625 10.9596996307373047 -1.725350022315979 -0.319442659616470337 0.61786186695098877 0.718472719192504883
7.57420015335083008 5.43889999389648438 1.39719998836517334 0.22346217930316925 0.297226458787918091 0.928289353847503662
1.72630000114440918 6.87370014190673828 0.35839998722076416 -0.373258084058761597 -0.502906501293182373 0.779591858386993408
6.6212000846862793 4.08379983901977539 2.09559988975524902 0.256510645151138306 0.29753488302230835 0.919606029987335205
10.1290998458862305 8.65340042114257812 -0.32510000467300415 0.251775354146957397 0.284544497728347778 0.925010025501251221
3.95720005035400391 10.2819499969482422 0.659900009632110596 0.312718093395233154 0.436859309673309326 0.843422412872314453
7.63100004196166992 7.68340015411376953 0.556699991226196289 0.29010048508644104 0.460440605878829956 0.838949441909790039
8.57859992980957031 7.69610023498535156 0.322299987077713013 0.163534790277481079 0.412274688482284546 0.896262228488922119
13.20989990234375 7.49179983139038086 -2.88840007781982422 0.83369976282119751 -0.371507823467254639 0.40856662392616272
12.5329999923706055 6.13290023803710938 -3.22860002517700195 0.806912839412689209 -0.501145660877227783 0.312641382217407227
2.53949999809265137 4.43909978866577148 -0.329600006341934204 0.918171226978302002 0.196643337607383728 -0.343937486410140991
10.1490001678466797 3.20945000648498535 -1.11430001258850098 0.824536561965942383 -0.469060242176055908 0.316420525312423706
3.25244998931884766 3.80719995498657227 1.87790000438690186 0.348719567060470581 -0.642366230487823486 -0.682466328144073486
10.1880998611450195 10.9257001876831055 -1.38310003280639648 0.0821356996893882751 -0.560615777969360352 -0.823992550373077393
1.48679995536804199 7.31150007247924805 0.515999972820281982 -0.347129672765731812 -0.45851600170135498 0.818085610866546631
9.29790019989013672 8.8125 -0.256000012159347534 0.00755442958325147629 0.414483249187469482 0.910025596618652344
5.4047999382019043 9.94639968872070312 0.188600003719329834 0.417791485786437988 0.550608694553375244 0.722689628601074219
12.1206998825073242 6.76459980010986328 -1.63110005855560303 0.762314260005950928 -0.283988207578659058 0.581573426723480225
4.79160022735595703 9.72900009155273438 0.619300007820129395 0.337991386651992798 0.445348471403121948 0.829111933708190918
10.7750997543334961 6.43450021743774414 -0.332800000905990601 -0.666200518608093262 0.0761493369936943054 -0.741874754428863525
7.63609981536865234 5.6314997673034668 1.31420004367828369 0.2200002521276474 0.294274866580963135 0.930054962635040283
2.69720005989074707 8.91269969940185547 1.17110002040863037 0.00714546674862504005 0.0270465333014726639 0.999608635902404785
4.72480010986328125 11.1913995742797852 -0.540600001811981201 -0.505370855331420898 -0.685809552669525146 -0.523703694343566895
6.11059999465942383 7.02409982681274414 1.12929999828338623 -0.105855211615562439 -0.115307934582233429 -0.987673401832580566
9.43630027770996094 7.32950019836425781 0.283199995756149292 0.284567654132843018 0.270657390356063843 0.919655263423919678
3.22230005264282227 10.4195995330810547 0.839399993419647217 -0.248267576098442078 -0.315541505813598633 -0.91585850715637207
11.1134004592895508 8.80910015106201172 -0.705900013446807861 0.380359381437301636 0.179165288805961609 0.907318294048309326
5.59119987487792969 9.14379978179931641 0.606400012969970703 0.347639560699462891 0.438596576452255249 0.828721761703491211
6.34149980545043945 9.756500244140625 -0.296000003814697266 -0.486137568950653076 -0.661334395408630371 -0.571232914924621582
7.33360004425048828 7.40630006790161133 0.79430001974105835 0.293329477310180664 0.353262156248092651 0.888348817825317383
0.73890000581741333 6.06279993057250977 -2.02320003509521484 0.599977493286132812 0.784056782722473145 -0.159002915024757385
5.44600009918212891 10.2344999313354492 -0.0846000015735626221 0.47815588116645813 0.608485758304595947 0.633334040641784668
7.98890018463134766 7.9197998046875 0.24400000274181366 0.174487590789794922 0.565427243709564209 0.806130349636077881
3.73510003089904785 6.83540010452270508 1.00950002670288086 -0.191170647740364075 -0.247926875948905945 0.949729442596435547
4.18079996109008789 6.56349992752075195 1.02470004558563232 -0.177301347255706787 -0.211034640669822693 0.961264073848724365
3.9021000862121582 10.8454999923706055 0.363799989223480225 -0.337646961212158203 -0.529200494289398193 -0.778422355651855469
8.47420024871826172 4.39739990234375 1.25810003280639648 0.509122550487518311 0.0590156279504299164 0.858668386936187744
9.34659957885742188 7.80900001525878906 0.152600005269050598 0.17118699848651886 0.354103893041610718 0.919404923915863037
3.30139994621276855 4.43020009994506836 1.21189999580383301 0.492629051208496094 -0.628353476524353027 -0.602070212364196777
6.7284998893737793 9.82190036773681641 -0.774399995803833008 -0.453917533159255981 -0.739929556846618652 -0.496450513601303101
7.30280017852783203 5.72609996795654297 1.33720004558563232 0.133181467652320862 0.342606306076049805 0.929991185665130615
5.17530012130737305 8.71669960021972656 0.914799988269805908 0.21679118275642395 0.268547475337982178 0.938554108142852783
9.73009967803955078 7.59040021896362305 0.112999998033046722 0.296410828828811646 0.287771701812744141 0.910674512386322021
4.64449977874755859 6.05049991607666016 0.984099984169006348 -0.211135029792785645 -0.0214345194399356842 0.977221846580505371
0.145500004291534424 6.54869985580444336 -1.80610001087188721 -0.60271298885345459 -0.774902164936065674 0.190430209040641785
4.22949981689453125 10.5277996063232422 0.407099992036819458 0.378299862146377563 0.502347350120544434 0.777519345283508301
5.5271000862121582 6.21159982681274414 1.13950002193450928 -0.0720265358686447144 0.11327720433473587 0.990949273109436035
4.60480022430419922 6.83010005950927734 1.13090002536773682 0.0986762791872024536 0.137150362133979797 -0.985623061656951904
4.3106999397277832 9.78390026092529297 0.764199972152709961 0.31169426441192627 0.393137663602828979 0.865037262439727783
7.51469993591308594 8.50269985198974609 0.0546000003814697266 -0.264930576086044312 -0.559410512447357178 -0.7854117751121521
5.39569997787475586 6.12209987640380859 1.11670005321502686 -0.139698505401611328 0.0691764280200004578 0.98777472972869873
6.93629980087280273 3.53220009803771973 2.1482999324798584 0.368814438581466675 0.186065047979354858 0.910689711570739746
1.61629998683929443 6.41179990768432617 -0.0742999985814094543 0.431112974882125854 0.594520986080169678 -0.678738832473754883
4.55880022048950195 10.9898996353149414 -0.163200005888938904 -0.459392935037612915 -0.629650890827178955 -0.626496493816375732
3.94009995460510254 6.9962000846862793 1.07850003242492676 -0.162294939160346985 -0.200918838381767273 0.966070353984832764
3.01020002365112305 10.2265996932983398 0.95690000057220459 -0.224364116787910461 -0.239207983016967773 -0.944690585136413574
9.0214996337890625 5.20329999923706055 0.870800018310546875 0.500586509704589844 0.0729900151491165161 0.862603962421417236
4.41820001602172852 10.8859996795654297 0.0342000015079975128 -0.440477669239044189 -0.583544492721557617 -0.682242810726165771
3.19120001792907715 5.43030023574829102 0.167099997401237488 -0.68411719799041748 -0.107955135405063629 0.721338570117950439
11.546299934387207 7.99209976196289062 -0.850499987602233887 0.556319355964660645 -0.000404234509915113449 0.830968499183654785
9.47459983825683594 3.04809999465942383 0.066100001335144043 0.77995908260345459 -0.311003416776657104 0.543084442615509033
11.7403497695922852 7.38485002517700195 -1.03505003452301025 0.654278874397277832 -0.12128777801990509 0.746463954448699951
10.0135002136230469 2.78320002555847168 -1.67750000953674316 0.829806387424468994 -0.496841311454772949 0.254106372594833374
8.31599998474121094 8.79759979248046875 -0.291999995708465576 -0.0189556516706943512 0.585343420505523682 0.810563862323760986
8.09689998626708984 8.91069984436035156 -0.415199995040893555 0.00154920085333287716 0.628308355808258057 0.777962863445281982
7.48899984359741211 7.88329982757568359 0.503300011157989502 0.301952749490737915 0.490403354167938232 0.817513942718505859
9.22089958190917969 3.61750006675720215 0.616500020027160645 -0.71351325511932373 0.176171436905860901 -0.678131639957427979
6.32420015335083008 10.3066997528076172 -1.09829998016357422 -0.561639904975891113 -0.725604832172393799 -0.397565394639968872
9.04345035552978516 6.38584995269775391 0.666800022125244141 0.389793455600738525 0.195059582591056824 0.900007128715515137
11.4158000946044922 8.88780021667480469 -0.85689997673034668 0.407019436359405518 0.142839476466178894 0.902181804180145264
2.70269989967346191 4.57709980010986328 -0.106700003147125244 0.901055216789245605 0.0556490048766136169 -0.430119454860687256
10.6765003204345703 5.29619979858398438 -0.455199986696243286 0.738901913166046143 -0.197910904884338379 0.644092559814453125
12.1310997009277344 5.60989999771118164 -2.93819999694824219 0.827074885368347168 -0.493259936571121216 0.269521325826644897
3.01640009880065918 10.532099723815918 0.855899989604949951 -0.236401990056037903 -0.301540911197662354 -0.923681318759918213
5.57639980316162109 3.11579990386962891 2.67510008811950684 -0.140919789671897888 -0.383301675319671631 -0.912809610366821289
8.85550022125244141 10.0437002182006836 -1.04040002822875977 0.255909055471420288 -0.596868634223937988 -0.760433018207550049
7.2667999267578125 2.62485003471374512 2.10770010948181152 0.485741585493087769 0.0590481944382190704 0.872105717658996582
7.10230016708374023 10.1326999664306641 -2.16160011291503906 -0.0166366118937730789 -0.974267482757568359 -0.224780097603797913
1.88989996910095215 5.78669977188110352 -0.538500010967254639 -0.559758901596069336 -0.678162276744842529 0.476199448108673096
7.24970006942749023 5.99100017547607422 1.22539997100830078 0.118010520935058594 0.334451586008071899 0.934994995594024658
4.42469978332519531 10.6702499389648438 0.205500006675720215 0.402942359447479248 0.537483692169189453 0.740775763988494873
2.30180001258850098 4.94509983062744141 -1.613800048828125 0.715350568294525146 0.692284464836120605 -0.094951331615447998
3.61310005187988281 8.60809993743896484 1.16050004959106445 0.0319327712059020996 0.0657595321536064148 0.99732440710067749
4.90509986877441406 11.4336004257202148 -1.19760000705718994 -0.567870855331420898 -0.727930068969726562 -0.384240239858627319
4.18529987335205078 3.448699951171875 2.52740001678466797 0.143172979354858398 -0.454351127147674561 -0.879242002964019775
12.8323001861572266 8.33240032196044922 -1.89170002937316895 0.752325713634490967 -0.132040917873382568 0.645423293113708496
13.0110998153686523 7.17460012435913086 -2.8125 0.817272722721099854 -0.458382666110992432 0.349214345216751099
9.16240024566650391 8.39400005340576172 -0.0513999983668327332 0.0771340802311897278 0.394823998212814331 0.915513157844543457
7.84159994125366211 5.87610006332397461 1.18069994449615479 0.249822407960891724 0.293490141630172729 0.922741711139678955
4.04349994659423828 9.15999984741210938 1.03030002117156982 -0.212645635008811951 -0.236666768789291382 -0.948035180568695068
3.00020003318786621 6.03189992904663086 0.441599994897842407 -0.409639537334442139 -0.484511911869049072 0.772944808006286621
4.75689983367919922 11.6698999404907227 -1.53550004959106445 -0.571026802062988281 -0.745005190372467041 -0.344812452793121338
8.27569961547851562 6.11009979248046875 0.994300007820129395 0.26247677206993103 0.277212232351303101 0.924261510372161865
6.42409992218017578 5.45419979095458984 1.52719998359680176 -0.0329909622669219971 0.444735705852508545 0.895054042339324951
10.3261003494262695 3.74930000305175781 -0.848100006580352783 0.812288343906402588 -0.406793206930160522 0.417979568243026733
11.1255998611450195 8.07800006866455078 -0.597999989986419678 0.498326629400253296 0.0770701467990875244 0.863557040691375732
9.28489971160888672 10.6571998596191406 -1.37679994106292725 -0.199339538812637329 0.560818970203399658 0.803583145141601562
5.87669992446899414 10.4933004379272461 -0.808399975299835205 -0.546064853668212891 -0.722050309181213379 -0.424801766872406006
7.41755008697509766 6.38819980621337891 1.07169997692108154 0.154182523488998413 0.297123074531555176 0.942308664321899414
3.84619998931884766 4.67299985885620117 1.37679994106292725 -0.41643977165222168 0.632047832012176514 0.653523862361907959
1.756600022315979 5.29050016403198242 -2.66389989852905273 0.605373859405517578 0.788925528526306152 -0.105446815490722656
12.8264999389648438 6.78520011901855469 -2.8740999698638916 0.816221654415130615 -0.457470446825027466 0.352849781513214111
5.68020009994506836 2.91720008850097656 2.72359991073608398 -0.136533007025718689 -0.320996701717376709 -0.93718719482421875
13.3895998001098633 7.35690021514892578 -3.55480003356933594 0.81838613748550415 -0.464304566383361816 0.338622838258743286
12.7667999267578125 6.6744999885559082 -2.87949991226196289 0.81562727689743042 -0.457854092121124268 0.353725552558898926
7.59590005874633789 5.27759981155395508 1.44729995727539062 0.242603868246078491 0.289446741342544556 0.925939500331878662
7.8432002067565918 9.98369979858398438 -1.46650004386901855 0.386701107025146484 -0.664398670196533203 -0.639559745788574219
8.27390003204345703 5.33750009536743164 1.21019995212554932 -0.347812503576278687 -0.21016518771648407 -0.913705110549926758
3.4068000316619873 4.28819990158081055 1.47329998016357422 0.406342506408691406 -0.626080513000488281 -0.665514051914215088
6.29909992218017578 2.67969989776611328 2.59340000152587891 -0.359610110521316528 -0.214313209056854248 -0.908157706260681152
8.32269954681396484 4.76730012893676758 1.29630005359649658 0.419714599847793579 0.158141210675239563 0.893773436546325684
3.31649994850158691 6.33269977569580078 0.726599991321563721 0.276432633399963379 0.371570229530334473 -0.886295974254608154
3.3656001091003418 10.5319004058837891 0.751600027084350586 -0.272875070571899414 -0.347844153642654419 -0.896963596343994141
8.03059959411621094 6.23029994964599609 1.01139998435974121 0.243586182594299316 0.301960200071334839 0.921675562858581543
7.90929985046386719 9.48700046539306641 -0.941999971866607666 -0.0150427334010601044 -0.665799796581268311 -0.745978832244873047
8.76404953002929688 5.63910007476806641 0.940599977970123291 0.423438280820846558 0.166390866041183472 0.890513420104980469
1.24940001964569092 7.0149998664855957 0.199699997901916504 0.393919140100479126 0.529791295528411865 -0.751098453998565674
4.85360002517700195 10.421600341796875 0.146300002932548523 0.418499648571014404 0.554415464401245117 0.71936190128326416
8.6483001708984375 11.5446996688842773 -2.63249993324279785 -0.500149726867675781 0.734760642051696777 0.458232492208480835
9.75800037384033203 3.58295011520385742 -0.0357999987900257111 0.764576613903045654 -0.289303243160247803 0.575956761837005615
2.06500005722045898 6.69080018997192383 0.406899988651275635 -0.378221213817596436 -0.507281482219696045 0.774347603321075439
2.75679993629455566 6.02880001068115234 0.31959998607635498 -0.396145433187484741 -0.515700161457061768 0.75968557596206665
7.27729988098144531 3.051300048828125 2.06710004806518555 0.495886266231536865 0.0674374178051948547 0.865764975547790527
4.01389980316162109 7.38640022277832031 1.14209997653961182 -0.0594789236783981323 -0.0655710697174072266 0.996073663234710693
8.10289955139160156 3.86949992179870605 1.51919996738433838 0.539711058139801025 0.0343981422483921051 0.841147303581237793
6.07019996643066406 4.48850011825561523 2.02230000495910645 0.033701527863740921 0.438423752784729004 0.898136317729949951
8.86699962615966797 10.4921998977661133 -1.39079999923706055 0.274718374013900757 -0.613025784492492676 -0.740762591361999512
11.3640499114990234 7.96040010452270508 -0.730650007724761963 0.54226386547088623 0.0295556262135505676 0.839688241481781006
10.7271003723144531 4.9850001335144043 -0.64160001277923584 0.778708279132843018 -0.307762801647186279 0.546713352203369141
2.48920011520385742 4.83540010452270508 -1.19679999351501465 0.789617836475372314 0.59641265869140625 -0.1442069411277771
11.2973003387451172 5.86969995498657227 -0.976199984550476074 0.758557915687561035 -0.21628880500793457 0.614661693572998047
2.61700010299682617 6.47429990768432617 0.528999984264373779 -0.38032609224319458 -0.507218718528747559 0.773357093334197998
8.25080013275146484 7.83860015869140625 0.26940000057220459 0.154574334621429443 0.499657362699508667 0.852319955825805664
9.33990001678466797 6.17579984664916992 0.580299973487854004 0.446670502424240112 0.133520990610122681 0.88467937707901001
8.4720001220703125 3.2630000114440918 1.24730002880096436 -0.610883116722106934 0.0263236183673143387 -0.791283071041107178
6.54230022430419922 7.04020023345947266 1.07509994506835938 0.136613890528678894 0.187621772289276123 0.972694575786590576
12.1960000991821289 6.6417999267578125 -1.80299997329711914 0.795311391353607178 -0.317758113145828247 0.516245663166046143
10.2741003036499023 3.49320006370544434 -1.02639997005462646 0.826478958129882812 -0.451203316450119019 0.336672067642211914
8.22369956970214844 8.05379962921142578 0.149100005626678467 0.0891973301768302917 0.555934309959411621 0.826426565647125244
8.70580005645751953 3.18219995498657227 1.02709996700286865 0.65646827220916748 -0.144229203462600708 0.74043726921081543
1.33580005168914795 6.3871002197265625 -0.320699989795684814 -0.503640532493591309 -0.635969936847686768 0.58471226692199707
5.78380012512207031 3.08540010452270508 2.64019989967346191 -0.156308695673942566 -0.343160003423690796 -0.926179707050323486
3.7509000301361084 7.34340000152587891 1.11140000820159912 -0.101264670491218567 -0.122779034078121185 0.987254142761230469
4.68940019607543945 11.6616001129150391 -1.36049997806549072 -0.563450634479522705 -0.738713860511779785 -0.369898945093154907
5.55919981002807617 6.00019979476928711 1.13540005683898926 -0.170030757784843445 0.213152125477790833 0.962110042572021484
7.47049999237060547 10.8313999176025391 -3.42840003967285156 0.601048529148101807 -0.697800397872924805 -0.389634847640991211
5.63660001754760742 9.50020027160644531 0.379200011491775513 0.410934329032897949 0.49867546558380127 0.763187885284423828
9.81490039825439453 10.0134000778198242 -0.881799995899200439 -0.0502977780997753143 0.463543176651000977 0.884645640850067139
3.76789999008178711 4.93669986724853516 1.01810002326965332 0.427459418773651123 -0.399411290884017944 -0.811017274856567383
6.05049991607666016 10.3423004150390625 -0.778599977493286133 -0.546432852745056152 -0.71458745002746582 -0.436778992414474487
8.33860015869140625 10.8053998947143555 -2.00309991836547852 0.436333835124969482 -0.670405149459838867 -0.600141406059265137
11.515899658203125 9.56350040435791016 -1.03090000152587891 0.357359796762466431 0.236024677753448486 0.903651654720306396
5.29199981689453125 11.1161003112792969 -1.14800000190734863 -0.572625160217285156 -0.737181484699249268 -0.358697474002838135
5.41569995880126953 3.02769994735717773 2.73740005493164062 -0.113412879407405853 -0.371314793825149536 -0.9215545654296875
4.25729990005493164 8.80560016632080078 1.07210004329681396 0.150121599435806274 0.193510279059410095 0.969544887542724609
7.30900001525878906 3.5652000904083252 1.97990000247955322 0.42594495415687561 0.135093718767166138 0.894606411457061768
3.02629995346069336 8.01189994812011719 1.12890005111694336 -0.0511894561350345612 -0.0821413397789001465 0.995305180549621582
9.14009952545166016 11.4153003692626953 -2.08979988098144531 -0.339211374521255493 0.662694811820983887 0.667661011219024658
10.3037996292114258 5.28299999237060547 -0.0793000012636184692 0.689692795276641846 -0.133960694074630737 0.711602687835693359
9.13399982452392578 11.5805997848510742 -2.2639000415802002 -0.339211374521255493 0.662694811820983887 0.667661011219024658
6.65929985046386719 4.78800010681152344 1.82200002670288086 0.187170282006263733 0.337029337882995605 0.922701776027679443
1.76590001583099365 8.88920021057128906 1.11549997329711914 0.179223448038101196 0.147212937474250793 -0.972731888294219971
2.81850004196166992 5.58830022811889648 0.011300000362098217 0.628488719463348389 0.334718376398086548 -0.702114999294281006
12.5221996307373047 8.42609977722167969 -1.57500004768371582 0.670079827308654785 -0.0578468665480613708 0.740031599998474121
8.56999969482421875 7.37360000610351562 0.465900003910064697 0.213559985160827637 0.35237574577331543 0.911166012287139893
4.80530023574829102 6.95940017700195312 1.15880000591278076 -0.0785044357180595398 -0.117701180279254913 0.989941179752349854
8.68980026245117188 10.0348997116088867 -1.08619999885559082 -0.29144701361656189 0.620397865772247314 0.728124380111694336
9.87559986114501953 2.81640005111694336 -0.986599981784820557 0.818632125854492188 -0.479898452758789062 0.315497905015945435
1.79990005493164062 6.27460002899169922 -0.0715999975800514221 -0.4416065514087677 -0.619171559810638428 0.649315237998962402
9.90079975128173828 3.19330000877380371 -0.551500022411346436 0.817616283893585205 -0.443533718585968018 0.367125898599624634
10.8889999389648438 3.9328000545501709 -2.27559995651245117 0.83805161714553833 -0.474578768014907837 0.269155204296112061
10.9345998764038086 4.69850015640258789 -1.13559997081756592 0.804794430732727051 -0.341386079788208008 0.485552698373794556
2.42650008201599121 4.79260015487670898 -1.68669998645782471 0.709391891956329346 0.702963292598724365 -0.0510464757680892944
6.54850006103515625 9.86159992218017578 -0.626200020313262939 -0.516086816787719727 -0.707054555416107178 -0.483454495668411255
6.44920015335083008 5.97609996795654297 1.23860001564025879 -0.0269273892045021057 0.351906329393386841 0.935647845268249512
9.57610034942626953 8.99139976501464844 -0.362800002098083496 0.110093839466571808 0.400374621152877808 0.909713983535766602
7.14279985427856445 8.859100341796875 -0.00980000011622905731 0.357206881046295166 0.609086573123931885 0.708107888698577881
1.71529996395111084 5.78910017013549805 -0.726700007915496826 -0.571037411689758301 -0.684524774551391602 0.453146845102310181
3.2771000862121582 4.75829982757568359 0.722599983215332031 0.645846962928771973 -0.570922613143920898 -0.5068817138671875
11.581700325012207 5.32420015335083008 -1.79600000381469727 0.829477787017822266 -0.397689908742904663 0.392185360193252563
1.86409997940063477 9.29619979858398438 1.16390001773834229 0.0931731835007667542 -0.0515730343759059906 -0.994313299655914307
8.73904991149902344 3.05100011825561523 0.968299984931945801 0.684122800827026367 -0.164453089237213135 0.710585117340087891
2.62220001220703125 4.55550003051757812 -0.415899991989135742 0.895155668258666992 0.299405097961425781 -0.330231547355651855
5.26919984817504883 8.15180015563964844 1.04770004749298096 0.147812932729721069 0.185917198657989502 0.971383631229400635
8.80910015106201172 5.33570003509521484 0.96950000524520874 0.469485610723495483 0.126921534538269043 0.87377011775970459
1.10469996929168701 6.09730005264282227 -0.997500002384185791 -0.555661201477050781 -0.730080008506774902 0.397773593664169312
7.80800008773803711 8.58600044250488281 -0.194199994206428528 -0.128628194332122803 -0.59934920072555542 -0.79008561372756958
8.20940017700195312 9.17560005187988281 -0.578100025653839111 0.105823472142219543 -0.617347836494445801 -0.779540300369262695
6.42789983749389648 8.70320034027099609 0.497700005769729614 0.341425627470016479 0.472510546445846558 0.81250375509262085
2.4702000617980957 4.38880014419555664 -0.779999971389770508 0.824236869812011719 0.44391930103302002 -0.351524204015731812
10.1056003570556641 6.18160009384155273 0.145500004291534424 0.537211596965789795 0.0163851696997880936 0.8432883620262146
1.91260004043579102 5.17729997634887695 -1.95210003852844238 -0.629194438457489014 -0.76428598165512085 0.141355171799659729
10.6504001617431641 7.60769987106323242 -0.28540000319480896 0.465508252382278442 0.0858796685934066772 0.880867063999176025
6.95480012893676758 7.85559988021850586 0.725199997425079346 0.289038419723510742 0.363671034574508667 0.885550796985626221
6.37099981307983398 9.58430004119873047 -0.13760000467300415 0.481003612279891968 0.602499067783355713 0.63689124584197998
