ply
format ascii 1.0
element vertex 768
property float x
property float y
property float z
end_header
-1.06562721729278564 17.9045886993408203 -0.403491735458374023
-1.05858373641967773 17.9546642303466797 -0.402459859848022461
0.253525733947753906 19.2645111083984375 -0.34280124306678772
0.0608850270509719849 19.0094718933105469 -0.352670252323150635
-0.849017322063446045 18.3351097106933594 -0.389934003353118896
-0.137962013483047485 18.9535942077636719 -0.359200417995452881
-1.41672849655151367 17.719512939453125 -0.416618794202804565
-0.913533627986907959 18.1930027008056641 -0.394238054752349854
-1.00939679145812988 18.1045417785644531 -0.398471862077713013
0.244624823331832886 19.2163734436035156 -0.343898564577102661
-1.07595312595367432 18.0544376373291016 -0.40121123194694519
-0.111024454236030579 18.928863525390625 -0.358885407447814941
-1.0013735294342041 18.1636543273925781 -0.397205561399459839
-0.266717374324798584 18.7138099670410156 -0.367018818855285645
-1.77396118640899658 17.3879680633544922 -0.430571228265762329
-1.00500500202178955 18.2769832611083984 -0.391345769166946411
-0.848631918430328369 18.4163074493408203 -0.385758161544799805
-1.24476325511932373 18.0902023315429688 -0.398368030786514282
-0.778615295886993408 18.5027885437011719 -0.381868064403533936
-1.40915322303771973 17.8581714630126953 -0.409171611070632935
-0.780391514301300049 18.5350265502929688 -0.379983216524124146
-0.18778972327709198 19.1052761077880859 -0.356370866298675537
-1.69625508785247803 17.6653785705566406 -0.415801495313644409
-1.94300580024719238 17.5604705810546875 -0.413307398557662964
-1.44714558124542236 18.1950359344482422 -0.380124539136886597
-0.938966035842895508 18.6949596405029297 -0.361170411109924316
-1.90094959735870361 17.6147174835205078 -0.410449832677841187
-0.133229374885559082 19.5106945037841797 -0.328807950019836426
-1.78443646430969238 17.7059593200683594 -0.40844455361366272
-1.64923489093780518 17.9764289855957031 -0.389644801616668701
-1.37552189826965332 18.2346744537353516 -0.380538254976272583
-1.24767255783081055 18.3251285552978516 -0.379304111003875732
-1.35135185718536377 18.031402587890625 -0.399768322706222534
-0.565129697322845459 18.8594760894775391 -0.363163352012634277
-0.668586671352386475 18.8074455261230469 -0.36388811469078064
-0.387500643730163574 19.0773181915283203 -0.352683156728744507
-0.245256572961807251 19.2770156860351562 -0.342474877834320068
-0.948672294616699219 18.5167789459228516 -0.376617431640625
-0.946267008781433105 18.5691490173339844 -0.372923195362091064
-1.11906135082244873 18.373077392578125 -0.381980746984481812
-0.152194321155548096 19.2830066680908203 -0.344756096601486206
-0.3561897873878479 19.0775566101074219 -0.353577703237533569
-0.550112903118133545 18.9702606201171875 -0.355638861656188965
-1.30388963222503662 18.4019279479980469 -0.367383301258087158
-0.152813389897346497 19.5614109039306641 -0.320955425500869751
-0.631252586841583252 19.1413822174072266 -0.332425475120544434
-1.30986785888671875 18.4297275543212891 -0.363347887992858887
-0.933332264423370361 18.8283119201660156 -0.345720291137695312
-1.11532473564147949 18.6358203887939453 -0.354220181703567505
-0.305593907833099365 19.4043445587158203 -0.327518761157989502
-1.26986312866210938 18.4988822937011719 -0.358084768056869507
-0.875551402568817139 18.8428554534912109 -0.348909884691238403
-0.433807015419006348 19.2854480743408203 -0.331393659114837646
-0.17115667462348938 19.5534687042236328 -0.320363879203796387
-1.34144234657287598 18.5079479217529297 -0.350232303142547607
-2.07835626602172852 17.7598915100097656 -0.378725349903106689
-2.05377840995788574 17.685699462890625 -0.391952037811279297
-1.7081444263458252 18.0783977508544922 -0.372604906558990479
-2.13177704811096191 17.8275146484375 -0.363366067409515381
-0.745080173015594482 19.1818962097167969 -0.317368566989898682
-1.39277791976928711 18.4669322967529297 -0.350629866123199463
-1.863700270652771 18.1050224304199219 -0.352232307195663452
-0.553022265434265137 19.4635639190673828 -0.297209411859512329
-0.717001557350158691 19.4928741455078125 -0.267835736274719238
-1.29454624652862549 18.7796230316162109 -0.313017666339874268
-0.461095094680786133 19.7434501647949219 -0.259733349084854126
-1.34542322158813477 18.7133960723876953 -0.317615479230880737
-1.5057297945022583 18.5093441009521484 -0.331262737512588501
-1.39814639091491699 18.7190170288085938 -0.3088645339012146
-1.2223280668258667 18.8338031768798828 -0.313740521669387817
-0.451561838388442993 19.6944732666015625 -0.270046263933181763
-0.520026981830596924 19.5395545959472656 -0.288212835788726807
-0.509966731071472168 19.5834541320800781 -0.28169548511505127
-1.42409813404083252 18.8325004577636719 -0.284027785062789917
-1.73898613452911377 18.5146636962890625 -0.295500457286834717
-1.38060104846954346 18.8965530395507812 -0.278709143400192261
-1.784263014793396 18.4184417724609375 -0.306512713432312012
-1.64798557758331299 18.47930908203125 -0.315758794546127319
-1.95393049716949463 18.2924022674560547 -0.304315090179443359
-1.81142747402191162 18.337066650390625 -0.317501604557037354
-1.15322589874267578 19.1616783142089844 -0.26382330060005188
-1.47672247886657715 18.8373699188232422 -0.274530142545700073
-1.44142580032348633 18.9143142700195312 -0.264160960912704468
-0.985097110271453857 19.3717136383056641 -0.249344661831855774
-1.80465602874755859 18.5056724548339844 -0.285841643810272217
-1.89616572856903076 18.4211082458496094 -0.287223637104034424
-1.33549332618713379 19.0386905670166016 -0.256683260202407837
-1.77110517024993896 18.8567867279052734 -0.208948954939842224
-2.23700547218322754 18.2150535583496094 -0.267553597688674927
-2.40420293807983398 18.0912761688232422 -0.261587232351303101
-1.39805781841278076 19.2205104827880859 -0.200070112943649292
-1.09953248500823975 19.5689411163330078 -0.178425312042236328
-1.10195004940032959 19.5908393859863281 -0.172335565090179443
-0.807156264781951904 19.6027450561523438 -0.231423184275627136
-0.679632604122161865 19.8137722015380859 -0.207237184047698975
-0.739534258842468262 19.8463821411132812 -0.186952143907546997
-0.576734840869903564 19.9707984924316406 -0.190904006361961365
-1.43992924690246582 19.0129528045654297 -0.241576820611953735
-1.34556937217712402 19.2294673919677734 -0.20917937159538269
-1.00419270992279053 19.5081863403320312 -0.213182881474494934
-0.746559500694274902 19.81982421875 -0.191871628165245056
-0.75249636173248291 19.74029541015625 -0.209742292761802673
-1.81913459300994873 18.6211223602294922 -0.256881862878799438
-1.2637016773223877 19.4789657592773438 -0.162201061844825745
-2.15729951858520508 18.4997024536132812 -0.212065324187278748
-1.13627088069915771 19.5595149993896484 -0.172514885663986206
-1.18089640140533447 19.5623092651367188 -0.159762740135192871
-2.49289131164550781 18.3554821014404297 -0.164883017539978027
-2.21842122077941895 18.4837722778320312 -0.200423970818519592
-2.19833493232727051 18.5969562530517578 -0.172421857714653015
-1.37565362453460693 19.3350791931152344 -0.174699321389198303
-1.60535955429077148 19.1518955230712891 -0.16730836033821106
-0.960581600666046143 19.9828224182128906 -0.0935565680265426636
-2.00132179260253906 18.8983135223388672 -0.135864883661270142
-0.994998753070831299 19.9414634704589844 -0.096609264612197876
-0.97791743278503418 19.8090877532958984 -0.141085177659988403
-1.41563236713409424 19.4027805328369141 -0.14389510452747345
-1.49235832691192627 19.4632225036621094 -0.104785360395908356
-1.43574249744415283 19.4899044036865234 -0.112203516066074371
-1.24715507030487061 19.6628265380859375 -0.111634381115436554
-1.1302180290222168 19.7179336547851562 -0.126957148313522339
-1.63083779811859131 19.2531509399414062 -0.130196645855903625
-1.30616295337677002 19.5216255187988281 -0.138009741902351379
-1.5857541561126709 19.4315090179443359 -0.0876533389091491699
-2.77414059638977051 18.3634891510009766 -0.0738701596856117249
-2.4268043041229248 18.6325798034667969 -0.0928506627678871155
-1.78358328342437744 19.2862148284912109 -0.0740755200386047363
-2.10720396041870117 18.8978767395019531 -0.104173414409160614
-1.19358992576599121 19.8598651885986328 -0.0658447667956352234
-2.61211442947387695 18.2830219268798828 -0.154247254133224487
-2.52077794075012207 18.5773391723632812 -0.0816181600093841553
-2.5415503978729248 18.4042282104492188 -0.135001018643379211
-1.77314364910125732 19.5217304229736328 0.00768386479467153549
-1.93670845031738281 19.3935279846191406 0.0187225025147199631
-2.85731863975524902 18.448760986328125 -0.00916593056172132492
-1.90337026119232178 19.474700927734375 0.0386720746755599976
-2.67421340942382812 18.735992431640625 0.0364412777125835419
-1.66353189945220947 19.707366943359375 0.0405072793364524841
-2.45408797264099121 18.7757053375244141 -0.0319866649806499481
-2.67415809631347656 18.5481834411621094 -0.0393298417329788208
-2.59242892265319824 18.8053627014160156 0.0330462120473384857
-1.42694234848022461 19.7236919403076172 -0.0366442948579788208
-0.891372323036193848 20.1962642669677734 -0.0466137975454330444
-0.875722527503967285 20.2702693939208984 -0.02487926185131073
-2.44431710243225098 18.7018375396728516 -0.0631313174962997437
-1.38230228424072266 19.73284912109375 -0.0485366471111774445
-0.890153646469116211 20.3971347808837891 0.026467442512512207
-2.67741179466247559 18.4866714477539062 -0.062265247106552124
-1.20293939113616943 19.9189491271972656 -0.0416912585496902466
-1.57707440853118896 19.6149139404296875 -0.0251798387616872787
-1.32934606075286865 19.9429664611816406 0.010260358452796936
-1.23003983497619629 19.9030170440673828 -0.0382657311856746674
-2.66605472564697266 18.8206748962402344 0.0697684064507484436
-1.27778923511505127 20.4305133819580078 0.194679990410804749
-2.37483048439025879 19.1859302520751953 0.108713597059249878
-2.38108706474304199 19.1888599395751953 0.112860694527626038
-2.24885940551757812 19.2955169677734375 0.103171288967132568
-2.9154355525970459 18.7037296295166016 0.126990437507629395
-2.65440750122070312 18.8377552032470703 0.0724694952368736267
-1.94927704334259033 19.6951045989990234 0.154264956712722778
-3.01361680030822754 18.5438270568847656 0.096858002245426178
-1.29689133167266846 20.2355289459228516 0.117084681987762451
-1.4753488302230835 20.0337753295898438 0.103322282433509827
-1.10933911800384521 20.5936489105224609 0.195259630680084229
-1.69397175312042236 19.8919906616210938 0.132421210408210754
-2.72442626953125 18.7091789245605469 0.0451771877706050873
-2.58197355270385742 18.9068832397460938 0.0721479207277297974
-2.02402019500732422 19.5495185852050781 0.120342358946800232
-2.23082137107849121 19.2218246459960938 0.0634429976344108582
-2.32953858375549316 19.1852512359619141 0.0885538533329963684
-1.26738083362579346 20.2035808563232422 0.0908769890666007996
-1.91868889331817627 19.6531162261962891 0.121710658073425293
-1.80271100997924805 20.0738315582275391 0.272949784994125366
-1.44439876079559326 20.3255805969238281 0.223666831851005554
-1.81297111511230469 20.0286903381347656 0.254897594451904297
-1.73183572292327881 20.1314601898193359 0.26721915602684021
-2.5362555980682373 19.1564235687255859 0.167567268013954163
-2.46336531639099121 19.3222160339355469 0.216332390904426575
-1.4553755521774292 20.2738075256347656 0.202569708228111267
-1.48860538005828857 20.2311782836914062 0.197247013449668884
-1.63160920143127441 20.2129631042480469 0.25912165641784668
-1.38145160675048828 20.5641345977783203 0.31471666693687439
-1.26664745807647705 20.6701736450195312 0.311948567628860474
-1.31128251552581787 20.5016708374023438 0.247720479965209961
-3.12252545356750488 18.6638450622558594 0.208395138382911682
-2.71749281883239746 19.19976806640625 0.282461553812026978
-3.12208247184753418 18.6097316741943359 0.179629072546958923
-2.98394203186035156 18.8420047760009766 0.230990514159202576
-3.19876599311828613 18.6718406677246094 0.251869738101959229
-1.97578191757202148 19.9208488464355469 0.280812501907348633
-3.14029145240783691 18.7383155822753906 0.256815493106842041
-3.14296269416809082 18.7756710052490234 0.277892112731933594
-2.59312796592712402 19.3495502471923828 0.297414064407348633
-1.97554099559783936 19.9753875732421875 0.30944940447807312
-3.2975304126739502 18.7283191680908203 0.340490251779556274
-2.72870063781738281 19.4216880798339844 0.420283257961273193
-2.36648058891296387 19.7787437438964844 0.42023855447769165
-3.28988242149353027 18.7961807250976562 0.376808822154998779
-2.99214768409729004 19.1692256927490234 0.4246673583984375
-3.31267142295837402 18.7024612426757812 0.333911746740341187
-3.32342219352722168 18.8183345794677734 0.410054534673690796
-3.37241983413696289 18.632598876953125 0.327317029237747192
-3.23301601409912109 18.7195510864257812 0.296916931867599487
-3.37040257453918457 18.6520004272460938 0.337800085544586182
-3.32443785667419434 18.6424942016601562 0.304792344570159912
-2.71743607521057129 19.2381687164306641 0.303356438875198364
-3.18918871879577637 18.7520847320556641 0.290501445531845093
-2.07044196128845215 20.0347404479980469 0.398820161819458008
-1.34416818618774414 20.7531337738037109 0.400672048330307007
-2.86724328994750977 19.1224250793457031 0.322407513856887817
-1.30012297630310059 20.7697658538818359 0.384647190570831299
-2.25441980361938477 19.8639755249023438 0.40507015585899353
-1.69153177738189697 20.3320903778076172 0.35338747501373291
-2.40280795097351074 19.6164188385009766 0.344318687915802002
-2.57917070388793945 19.4228954315185547 0.332442104816436768
-2.15075325965881348 19.9129886627197266 0.373267889022827148
-2.82328248023986816 19.1699810028076172 0.324959486722946167
-3.15989112854003906 19.1016483306884766 0.490424543619155884
-2.59162211418151855 19.6741428375244141 0.494928121566772461
-1.78089582920074463 20.5017490386962891 0.508786201477050781
-3.22268843650817871 19.0768413543701172 0.516261160373687744
-2.66809916496276855 19.6408824920654297 0.524306714534759521
-3.48901152610778809 18.8147563934326172 0.518408715724945068
-2.08815169334411621 20.1812210083007812 0.498825818300247192
-2.92280983924865723 19.3247489929199219 0.481521040201187134
-3.08348798751831055 19.1217098236083984 0.452056944370269775
-3.56781816482543945 18.7665863037109375 0.539166510105133057
-1.79993331432342529 20.5419063568115234 0.549686670303344727
-1.76718544960021973 20.6692371368408203 0.615793764591217041
-2.10148739814758301 20.3168449401855469 0.6020774245262146
-2.63591861724853516 19.7717323303222656 0.592880427837371826
-1.5633779764175415 20.9752540588378906 0.687780976295471191
-2.43048214912414551 19.9336757659912109 0.563201248645782471
-2.22636914253234863 20.2291107177734375 0.627592623233795166
-2.75622820854187012 19.6663799285888672 0.602924048900604248
-1.74799394607543945 20.7444591522216797 0.654953598976135254
-1.96924293041229248 20.3564624786376953 0.537875652313232422
-3.03399538993835449 19.3590888977050781 0.581415712833404541
-1.57121169567108154 20.9633598327636719 0.684919953346252441
-2.76811385154724121 19.7429733276367188 0.669264376163482666
-2.43771624565124512 20.0524349212646484 0.651659131050109863
-3.30346989631652832 19.1184730529785156 0.601796925067901611
-2.9276585578918457 19.6452083587646484 0.7180672287940979
-3.68990731239318848 18.7257347106933594 0.598374903202056885
-3.37871861457824707 19.0990123748779297 0.645600855350494385
-3.07722043991088867 19.3866653442382812 0.633638083934783936
-3.35746383666992188 19.1569175720214844 0.674107253551483154
-2.92291474342346191 19.6249752044677734 0.69856637716293335
-3.39443421363830566 19.0233268737792969 0.598886191844940186
-3.53855323791503906 18.8710441589355469 0.593075811862945557
-2.77044677734375 19.8643684387207031 0.767846465110778809
-2.9776456356048584 19.6872425079345703 0.793025374412536621
-2.12962508201599121 20.5044822692871094 0.765018045902252197
-1.69083178043365479 20.9187049865722656 0.743498921394348145
-2.12052202224731445 20.6149253845214844 0.847383260726928711
-2.55609560012817383 20.034423828125 0.731077730655670166
-2.39171552658081055 20.2219142913818359 0.749289333820343018
-2.20427846908569336 20.4843616485595703 0.809621095657348633
-2.95444560050964355 19.6902637481689453 0.776537895202636719
-1.85333287715911865 20.7368011474609375 0.728293120861053467
-2.96633648872375488 19.7081642150878906 0.800802052021026611
-3.0492253303527832 19.5281829833984375 0.722151637077331543
-1.85125601291656494 20.9189491271972656 0.874697864055633545
-3.53169822692871094 19.1981678009033203 0.856624424457550049
-3.07741570472717285 19.6407127380371094 0.840935230255126953
-2.1134040355682373 20.6644554138183594 0.883334755897521973
-1.80127453804016113 20.9983844757080078 0.899262666702270508
-3.71720647811889648 18.9834632873535156 0.832634449005126953
-3.63552451133728027 19.0249595642089844 0.795761227607727051
-3.59108066558837891 19.1309146881103516 0.850263237953186035
-2.02579617500305176 20.7447891235351562 0.875827491283416748
-2.46002030372619629 20.3161144256591797 0.885752677917480469
-3.22858285903930664 19.4543972015380859 0.81122976541519165
-3.90412688255310059 18.76531982421875 0.806845784187316895
-2.98577976226806641 19.7215538024902344 0.830232858657836914
-1.92469096183776855 20.9041328430175781 0.928434967994689941
-3.58245754241943359 19.2341251373291016 0.936521053314208984
-2.13540887832641602 20.7022056579589844 0.939303278923034668
-3.0311739444732666 19.7611637115478516 0.906898915767669678
-2.03999972343444824 20.9060287475585938 1.04128789901733398
-3.37761235237121582 19.4564189910888672 0.950680911540985107
-2.72160649299621582 20.0849399566650391 0.916730344295501709
-3.19740653038024902 19.6592140197753906 0.970021665096282959
-2.93518924713134766 19.9223957061767578 0.967819333076477051
-3.1255652904510498 19.6728000640869141 0.913755953311920166
-2.06867146492004395 20.7443103790283203 0.915079772472381592
-2.36369967460632324 20.4510154724121094 0.92023932933807373
-2.00578951835632324 20.9931049346923828 1.09116470813751221
-3.3467867374420166 19.4916095733642578 0.954465091228485107
-2.00182795524597168 20.9999027252197266 1.09398651123046875
-3.75273299217224121 19.1580886840820312 1.03553998470306396
-3.49884533882141113 19.4251670837402344 1.04402220249176025
-2.87312459945678711 20.1184101104736328 1.10103607177734375
-3.27749443054199219 19.694061279296875 1.088584303855896
-3.76447200775146484 19.1935844421386719 1.08447921276092529
-2.97384262084960938 19.9600391387939453 1.0436168909072876
-3.91223049163818359 18.9891414642333984 1.02900886535644531
-3.55129647254943848 19.3682403564453125 1.04046475887298584
-3.74765968322753906 19.0874233245849609 0.957341432571411133
-3.79695534706115723 19.1418781280517578 1.06531274318695068
-3.58703255653381348 19.3356838226318359 1.04446423053741455
-3.46392536163330078 19.5360584259033203 1.12367784976959229
-3.69141125679016113 19.3282737731933594 1.15089797973632812
-2.37223196029663086 20.6670875549316406 1.14327108860015869
-2.7919013500213623 20.2696418762207031 1.17764389514923096
-2.19229483604431152 20.9635162353515625 1.26993858814239502
-2.14408230781555176 20.9694461822509766 1.22141122817993164
-3.19919753074645996 19.8006515502929688 1.11757504940032959
-3.45953607559204102 19.5534934997558594 1.13821721076965332
-2.7950139045715332 20.2106761932373047 1.11504209041595459
-2.0623173713684082 21.1016407012939453 1.27615725994110107
-2.3146965503692627 20.8551254272460938 1.28841078281402588
-2.23467326164245605 20.8491134643554688 1.19007492065429688
-2.21376752853393555 20.8634719848632812 1.18225765228271484
-2.97847223281860352 20.0706424713134766 1.1678922176361084
-3.08599948883056641 20.037811279296875 1.25661349296569824
-3.9756929874420166 19.0231571197509766 1.13431358337402344
-2.41302657127380371 20.7643623352050781 1.30027782917022705
-4.43385553359985352 18.6389274597167969 1.23629939556121826
-3.44679117202758789 19.6402130126953125 1.22356259822845459
-4.27695608139038086 18.6946144104003906 1.11083841323852539
-2.53829741477966309 20.6393566131591797 1.30436241626739502
-2.38378524780273438 20.7903308868408203 1.29549288749694824
-3.4917147159576416 19.6341209411621094 1.27123761177062988
-4.09268522262573242 18.9602508544921875 1.20235669612884521
-4.03097915649414062 18.9764614105224609 1.14622664451599121
-3.37873291969299316 19.7652397155761719 1.2894749641418457
-2.92050719261169434 20.3023319244384766 1.37739443778991699
-2.09208130836486816 21.1632881164550781 1.39081048965454102
-3.48597455024719238 19.7155132293701172 1.36938261985778809
-2.69378042221069336 20.4900283813476562 1.31673789024353027
-3.43002629280090332 19.7447853088378906 1.33153867721557617
-2.53382039070129395 20.7090034484863281 1.39009928703308105
-2.46864461898803711 20.7439556121826172 1.34715878963470459
-2.20057940483093262 21.0858249664306641 1.43642115592956543
-2.14599418640136719 21.1622295379638672 1.46371340751647949
-2.8132636547088623 20.4621677398681641 1.44406008720397949
-2.68958854675292969 20.4971332550048828 1.32049524784088135
-2.07592487335205078 21.2586936950683594 1.49657845497131348
-3.6318972110748291 19.5500717163085938 1.34851324558258057
-2.37663865089416504 20.8610496520996094 1.37747001647949219
-2.87167096138000488 20.4178886413574219 1.46526288986206055
-3.92462062835693359 19.3448734283447266 1.48167812824249268
-2.71181988716125488 20.5957984924316406 1.48366940021514893
-3.74814724922180176 19.4687099456787109 1.40096533298492432
-3.89893698692321777 19.2806529998779297 1.35543179512023926
-4.46361684799194336 18.6627120971679688 1.3050692081451416
-3.05215716361999512 20.2291889190673828 1.46143043041229248
-3.42964053153991699 19.8328227996826172 1.45104110240936279
-3.60809135437011719 19.6469631195068359 1.44824337959289551
-4.45797443389892578 18.7083263397216797 1.36047947406768799
-3.63686132431030273 19.6255912780761719 1.45975279808044434
-4.26804733276367188 18.8710384368896484 1.31459105014801025
-4.37456130981445312 18.8137741088867188 1.3876417875289917
-3.58136391639709473 19.7790584564208984 1.60953390598297119
-4.56949424743652344 18.679656982421875 1.48229575157165527
-3.77514362335205078 19.5147914886474609 1.50475621223449707
-2.39815855026245117 21.0870285034179688 1.747994065284729
-2.20622658729553223 21.2139339447021484 1.63060116767883301
-2.90302729606628418 20.490875244140625 1.62650573253631592
-3.46337294578552246 19.8454227447509766 1.51825201511383057
-2.84996676445007324 20.5609931945800781 1.65151476860046387
-2.07401418685913086 21.4298458099365234 1.76048970222473145
-2.26486968994140625 21.2193794250488281 1.73899829387664795
-2.6908257007598877 20.6665687561035156 1.55475485324859619
-4.00530672073364258 19.2740020751953125 1.50020265579223633
-2.80260801315307617 20.6272201538085938 1.67981493473052979
-2.81368398666381836 20.6274623870849609 1.6989980936050415
-2.2535240650177002 21.1501941680908203 1.60627591609954834
-2.74261116981506348 20.6785335540771484 1.6622166633605957
-4.6540837287902832 18.5890140533447266 1.47715187072753906
-4.25744771957397461 19.0754051208496094 1.6031879186630249
-3.65456390380859375 19.7040786743164062 1.61084485054016113
-4.07193470001220703 19.2717170715332031 1.61030459403991699
-3.35732722282409668 20.0646114349365234 1.69870293140411377
-4.1609501838684082 19.2236003875732422 1.68348789215087891
-3.86677098274230957 19.4800052642822266 1.60351252555847168
-4.02833938598632812 19.3773517608642578 1.71088528633117676
-4.76600360870361328 18.5427131652832031 1.59277021884918213
-3.07251524925231934 20.3551921844482422 1.6916574239730835
-4.65895843505859375 18.6524868011474609 1.59105169773101807
-3.43247723579406738 19.9551467895507812 1.64605188369750977
-4.04921627044677734 19.3469200134277344 1.69622135162353516
-2.53256869316101074 20.9648418426513672 1.77599036693572998
-3.03478240966796875 20.4601726531982422 1.81110465526580811
-4.36617231369018555 19.0770206451416016 1.81478035449981689
-2.97575139999389648 20.5180950164794922 1.80398452281951904
-4.30055713653564453 19.1261558532714844 1.77571582794189453
-3.43165206909179688 20.0554428100585938 1.82766687870025635
-5.00794124603271484 18.3994693756103516 1.7944260835647583
-4.00860691070556641 19.4213161468505859 1.75827670097351074
-4.41211128234863281 18.9832324981689453 1.72079169750213623
-2.20338320732116699 21.3202190399169922 1.80129468441009521
-4.61118745803833008 18.8296127319335938 1.83003294467926025
-3.80731105804443359 19.6179428100585938 1.73218858242034912
-4.74680519104003906 18.6346054077148438 1.71983516216278076
-4.86026382446289062 18.4983749389648438 1.6826324462890625
-4.55334091186523438 18.8424663543701172 1.73334765434265137
-4.30694293975830078 19.1756725311279297 1.8909449577331543
-3.38048315048217773 20.1506919860839844 1.91473686695098877
-2.29943704605102539 21.3059749603271484 1.97897076606750488
-2.39990377426147461 21.1992225646972656 1.97427499294281006
-2.92330288887023926 20.5928382873535156 1.84556150436401367
-3.56113481521606445 19.9739418029785156 1.93784010410308838
-2.14275741577148438 21.4789562225341797 1.99977803230285645
-4.2048649787902832 19.3012428283691406 1.93120741844177246
-2.27056550979614258 21.3522071838378906 2.01259303092956543
-2.84272527694702148 20.6818733215332031 1.85642039775848389
-4.15232563018798828 19.3219032287597656 1.86069703102111816
-2.50615811347961426 21.0208568572998047 1.83347237110137939
-4.41656637191772461 19.0486621856689453 1.86397647857666016
-3.10585808753967285 20.46435546875 1.97292697429656982
-2.99289298057556152 20.5120086669921875 1.82802426815032959
-4.60254049301147461 18.8683223724365234 1.89111495018005371
-2.84241962432861328 20.7338771820068359 1.96366500854492188
-4.19499778747558594 19.3233833312988281 1.96226334571838379
-4.30351829528808594 19.2397098541259766 2.04125237464904785
-4.58034563064575195 18.9248428344726562 1.97421526908874512
-2.66572284698486328 20.9473361968994141 2.02689027786254883
-4.72462081909179688 18.7622146606445312 1.94317269325256348
-4.60717630386352539 18.8984222412109375 1.97856342792510986
-3.82020163536071777 19.7512569427490234 2.05720019340515137
-4.84201383590698242 18.6875324249267578 2.07053875923156738
-4.3976287841796875 19.1043815612792969 1.94356763362884521
-5.12549591064453125 18.4014263153076172 2.09808444976806641
-4.96827840805053711 18.5452136993408203 2.04339265823364258
-3.6925358772277832 19.8572483062744141 1.98428142070770264
-3.8587186336517334 19.6723098754882812 1.95483779907226562
-3.87416863441467285 19.6877784729003906 2.03858113288879395
-4.10960292816162109 19.4517612457275391 2.06568288803100586
-4.58831501007080078 18.9629173278808594 2.09709477424621582
-3.98177742958068848 19.6180934906005859 2.15523767471313477
-3.50965428352355957 20.1039905548095703 2.13373041152954102
-2.86744952201843262 20.7875041961669922 2.16717076301574707
-2.24228620529174805 21.4495410919189453 2.19045495986938477
-2.37558603286743164 21.3148117065429688 2.20335698127746582
-2.75261402130126953 20.9120025634765625 2.17947554588317871
-2.2271873950958252 21.4228687286376953 2.07251405715942383
-3.01053333282470703 20.6585311889648438 2.22448039054870605
-3.21154570579528809 20.4321460723876953 2.17944574356079102
-4.05599308013916016 19.543670654296875 2.16405344009399414
-3.33925223350524902 20.2805919647216797 2.12937784194946289
-3.90788507461547852 19.6851959228515625 2.12702465057373047
-2.98328685760498047 20.6831684112548828 2.21378111839294434
-3.15289402008056641 20.4815883636474609 2.14644122123718262
-2.64147734642028809 20.9945793151855469 2.08607959747314453
-2.2885441780090332 21.3661231994628906 2.09309601783752441
-2.4232947826385498 21.2141456604003906 2.0623009204864502
-3.0056300163269043 20.6796054840087891 2.27387189865112305
-5.02170372009277344 18.5493755340576172 2.23186635971069336
-3.10042691230773926 20.5897388458251953 2.31042909622192383
-4.41891670227050781 19.1805744171142578 2.22302412986755371
-4.66543722152709961 18.9217014312744141 2.22389674186706543
-4.69937992095947266 18.9142322540283203 2.32943010330200195
-3.47700977325439453 20.1877059936523438 2.28713583946228027
-5.14806795120239258 18.43707275390625 2.30861258506774902
-4.66983413696289062 18.9385490417480469 2.30422234535217285
-3.93438529968261719 19.6981391906738281 2.25406289100646973
-4.55728483200073242 19.0268459320068359 2.19198393821716309
-4.96886253356933594 18.6204814910888672 2.29010748863220215
-3.82675695419311523 19.8138961791992188 2.26391696929931641
-4.64143562316894531 18.9524631500244141 2.24460434913635254
-2.8483269214630127 20.8503074645996094 2.29395675659179688
-4.77042770385742188 18.8022003173828125 2.18966460227966309
-4.99327468872070312 18.60760498046875 2.3384242057800293
-4.90699052810668945 18.701873779296875 2.35331249237060547
-4.55399417877197266 19.0773773193359375 2.37224578857421875
-2.39061832427978516 21.3769111633300781 2.48093414306640625
-3.60267782211303711 20.0639781951904297 2.31848335266113281
-2.83810615539550781 20.8781776428222656 2.36311912536621094
-2.96942591667175293 20.7447910308837891 2.38211917877197266
-4.60917568206787109 19.0242500305175781 2.39229869842529297
-5.2119293212890625 18.3793258666992188 2.34452557563781738
-4.55084371566772461 19.0871715545654297 2.39902496337890625
-2.79007840156555176 20.9309654235839844 2.37270832061767578
-2.59447455406188965 21.1327724456787109 2.35730600357055664
-3.20028853416442871 20.4918880462646484 2.33950114250183105
-2.23275375366210938 21.5114536285400391 2.35150790214538574
-2.75221490859985352 20.9912662506103516 2.45743894577026367
-2.50059366226196289 21.2267570495605469 2.33804917335510254
-5.2174525260925293 18.3726367950439453 2.34087228775024414
-3.61784958839416504 20.078857421875 2.44577193260192871
-3.91690683364868164 19.7710151672363281 2.48457741737365723
-5.08132457733154297 18.5298652648925781 2.41422367095947266
-5.12008428573608398 18.5006866455078125 2.48638606071472168
-5.53438425064086914 18.0442371368408203 2.37019467353820801
-4.96247768402099609 18.6570281982421875 2.42438197135925293
-4.42797470092773438 19.2360343933105469 2.51365804672241211
-4.33011722564697266 19.3250160217285156 2.42547845840454102
-4.6305537223815918 19.0268592834472656 2.54287052154541016
-4.60149049758911133 19.0595779418945312 2.55531620979309082
-3.28333783149719238 20.4478187561035156 2.53195309638977051
-5.58781099319458008 18.0092525482177734 2.50180673599243164
-3.72584366798400879 19.9712886810302734 2.47536301612854004
-4.13800859451293945 19.5296840667724609 2.43646550178527832
-2.9702298641204834 20.7815132141113281 2.55058765411376953
-4.73521137237548828 18.9072227478027344 2.4869236946105957
-3.17858409881591797 20.5616550445556641 2.55166721343994141
-5.49343347549438477 18.1084728240966797 2.49906659126281738
-4.2227325439453125 19.47021484375 2.637115478515625
-2.51605033874511719 21.2869071960449219 2.75128030776977539
-2.83920049667358398 20.9305820465087891 2.63221049308776855
-4.80388784408569336 18.8494873046875 2.58155941963195801
-3.33542895317077637 20.3992538452148438 2.57443499565124512
-4.7323760986328125 18.9257335662841797 2.58732843399047852
-4.66766214370727539 18.9946250915527344 2.59170222282409668
-2.86589169502258301 20.9127445220947266 2.71388745307922363
-3.0286405086517334 20.7458114624023438 2.7527921199798584
-4.90022087097167969 18.7508697509765625 2.60610485076904297
-3.25238537788391113 20.4873313903808594 2.57746767997741699
-2.95803427696228027 20.797760009765625 2.5742950439453125
-3.10142683982849121 20.6586990356445312 2.67185878753662109
-3.11957788467407227 20.6281795501708984 2.58226466178894043
-3.62842369079589844 20.0963706970214844 2.6258695125579834
-2.9389803409576416 20.8376655578613281 2.73048615455627441
-3.51753330230712891 20.2186241149902344 2.66656064987182617
-2.66694521903991699 21.12591552734375 2.73826742172241211
-4.16730308532714844 19.5226688385009766 2.58912491798400879
-4.55834388732910156 19.1147251129150391 2.62850832939147949
-4.82377529144287109 18.8405418395996094 2.72770047187805176
-2.75599503517150879 21.0383586883544922 2.7973942756652832
-4.61591625213623047 19.0647430419921875 2.78977608680725098
-4.20769929885864258 19.4929714202880859 2.70821142196655273
-5.48581504821777344 18.1343231201171875 2.66251087188720703
-4.73226261138916016 18.9401798248291016 2.7707066535949707
-5.07721090316772461 18.5677108764648438 2.66093277931213379
-3.79009628295898438 19.9405517578125 2.78485012054443359
-5.68854045867919922 17.9150962829589844 2.59250116348266602
-5.31102705001831055 18.3214969635009766 2.69189119338989258
-5.35643339157104492 18.2688999176025391 2.61735677719116211
-3.92041277885437012 19.8006572723388672 2.7572026252746582
-3.36837100982666016 20.3874378204345703 2.7761847972869873
-5.02411317825317383 18.6226005554199219 2.63668107986450195
-5.82120513916015625 17.7862739562988281 2.79317378997802734
-4.19367313385009766 19.5123348236083984 2.78371286392211914
-4.94275093078613281 18.7106227874755859 2.66540694236755371
-4.78538608551025391 18.8807296752929688 2.71861886978149414
-2.31818056106567383 21.5050868988037109 2.90083050727844238
-2.56440877914428711 21.244476318359375 2.95740413665771484
-3.4836423397064209 20.2684440612792969 2.91508626937866211
-2.61295819282531738 21.1937408447265625 3.02182126045227051
-3.66320109367370605 20.0766468048095703 2.8134148120880127
-2.43433690071105957 21.3820724487304688 2.92162823677062988
-3.97527551651000977 19.7470550537109375 2.94317197799682617
-3.27881836891174316 20.4860191345214844 2.93224835395812988
-2.47683119773864746 21.3381500244140625 3.01750087738037109
-3.62008452415466309 20.1235942840576172 2.91080212593078613
-2.5778965950012207 21.2306041717529297 2.99350333213806152
-2.69999456405639648 21.1010322570800781 2.99378371238708496
-5.5184330940246582 18.1078681945800781 2.81660056114196777
-3.35132670402526855 20.4077892303466797 2.8275139331817627
-2.52952194213867188 21.2819099426269531 2.99121332168579102
-4.19067049026489258 19.5174045562744141 2.85584425926208496
-2.97256636619567871 20.8102073669433594 2.86584115028381348
-3.07665634155273438 20.7003574371337891 2.91591477394104004
-3.53888082504272461 20.2095127105712891 2.88961601257324219
-2.76517677307128906 21.0322952270507812 3.02940487861633301
-5.42920112609863281 18.1958122253417969 2.9811713695526123
-5.14586448669433594 18.5008735656738281 2.91391324996948242
-4.38631010055541992 19.3057308197021484 3.01586437225341797
-5.04672336578369141 18.6023197174072266 3.00593686103820801
-2.37245345115661621 21.4493522644042969 3.07564568519592285
-3.02041220664978027 20.75933837890625 3.06300854682922363
-4.58520364761352539 19.0929069519042969 3.03424382209777832
-5.26433658599853516 18.3707923889160156 2.99714016914367676
-5.92189311981201172 17.66973876953125 3.00217437744140625
-4.02396011352539062 19.6909599304199219 3.03687596321105957
-4.05831241607666016 19.6582450866699219 2.9518425464630127
-3.72150564193725586 20.0127487182617188 3.04918003082275391
-5.6241912841796875 17.9916915893554688 2.9004817008972168
-2.97214508056640625 20.8122386932373047 3.03122901916503906
-5.72139310836791992 17.8835735321044922 2.99907350540161133
-3.97926950454711914 19.7399463653564453 3.00730228424072266
-4.5023036003112793 19.1815814971923828 3.02730822563171387
-4.02652645111083984 19.6912612915039062 2.97059011459350586
-3.86955451965332031 19.8564128875732422 3.01749396324157715
-5.37305068969726562 18.2615432739257812 2.85279560089111328
-3.00210022926330566 20.7709617614746094 3.1436004638671875
-4.047332763671875 19.6522026062011719 3.18217563629150391
-3.30285286903381348 20.4498386383056641 3.14705252647399902
-2.43089842796325684 21.3642559051513672 3.29868721961975098
-3.43781709671020508 20.3012180328369141 3.19255161285400391
-2.39170026779174805 21.4285850524902344 3.07935047149658203
-4.73176860809326172 18.9335746765136719 3.07152628898620605
-3.56218671798706055 20.1716632843017578 3.16244840621948242
-2.78781652450561523 20.9897060394287109 3.23905539512634277
-2.38276410102844238 21.4316749572753906 3.14207291603088379
-5.02906656265258789 18.6188697814941406 3.04836225509643555
-4.67639398574829102 18.9863929748535156 3.13233017921447754
-3.87479615211486816 19.8426494598388672 3.11958599090576172
-4.36927700042724609 19.3107681274414062 3.16331362724304199
-3.3986818790435791 20.3486461639404297 3.13716912269592285
-2.60715961456298828 21.1932163238525391 3.13358759880065918
-4.79640960693359375 18.8600826263427734 3.11583995819091797
-2.5562593936920166 21.2456684112548828 3.15146255493164062
-4.45469522476196289 19.2248039245605469 3.11326408386230469
-4.34563875198364258 19.338409423828125 3.13963603973388672
-2.56217646598815918 21.2354621887207031 3.18939709663391113
-5.30862045288085938 18.2935028076171875 3.23954534530639648
-5.76186990737915039 17.8115730285644531 3.21764945983886719
-4.40689754486083984 19.2556858062744141 3.26101565361022949
-5.37365055084228516 18.2216014862060547 3.25428891181945801
-4.80652046203613281 18.8471107482910156 3.1356813907623291
-5.76923274993896484 17.8192176818847656 3.11683130264282227
-4.19275999069213867 19.4794578552246094 3.29679489135742188
-5.82327127456665039 17.7537288665771484 3.16636514663696289
-3.8396155834197998 19.8652458190917969 3.24700164794921875
-5.76216459274291992 17.8077640533447266 3.24033713340759277
-5.42455387115478516 18.1646347045898438 3.27029752731323242
-5.05549526214599609 18.576202392578125 3.16374874114990234
-4.43708133697509766 19.2341747283935547 3.19086813926696777
-4.72053861618041992 18.9216213226318359 3.2496178150177002
-5.81961774826049805 17.7739334106445312 3.06059408187866211
-5.18655061721801758 18.4391040802001953 3.14281964302062988
-3.62860107421875 20.0873603820800781 3.27181410789489746
-4.17789554595947266 19.5087032318115234 3.2102508544921875
-6.1077570915222168 17.4444084167480469 3.19698905944824219
-6.06076955795288086 17.4871864318847656 3.24588680267333984
-2.44088006019592285 21.3088130950927734 3.51995587348937988
-5.15935087203979492 18.4438972473144531 3.29545068740844727
-2.46943569183349609 21.2752227783203125 3.53352999687194824
-2.69206380844116211 21.0773963928222656 3.34750986099243164
-3.08705639839172363 20.6426715850830078 3.39896488189697266
-4.04023885726928711 19.6337680816650391 3.3401639461517334
-4.21083641052246094 19.4360980987548828 3.40754294395446777
-2.96675372123718262 20.7817497253417969 3.35288405418395996
-4.05237102508544922 19.5986156463623047 3.44106650352478027
-5.37981319427490234 18.2109222412109375 3.28014206886291504
-2.35842227935791016 21.3949184417724609 3.53038334846496582
-3.29747343063354492 20.409088134765625 3.43548703193664551
-2.83298444747924805 20.8911628723144531 3.50772929191589355
-2.49464726448059082 21.2859363555908203 3.36159348487854004
-4.06589126586914062 19.5881252288818359 3.42282366752624512
-2.99367547035217285 20.7171478271484375 3.51572108268737793
-4.05606698989868164 19.6040325164794922 3.39833402633666992
-3.9135744571685791 19.7632007598876953 3.36909770965576172
-2.58594799041748047 21.1675338745117188 3.45510745048522949
-2.70000529289245605 21.0377311706542969 3.48943042755126953
-4.19309377670288086 19.4545307159423828 3.41022443771362305
-4.23485136032104492 19.4241008758544922 3.34492039680480957
-2.45853209495544434 21.281158447265625 3.5597381591796875
-6.08260488510131836 17.4536819458007812 3.29389619827270508
-5.53453159332275391 18.0122337341308594 3.41040968894958496
-5.42971658706665039 18.1282730102539062 3.39823603630065918
-4.95838785171508789 18.6340866088867188 3.4032433032989502
-5.09396648406982422 18.4568958282470703 3.5202333927154541
-6.29000091552734375 17.2124423980712891 3.3614654541015625
-4.8879389762878418 18.7134647369384766 3.3898766040802002
-4.79279184341430664 18.7913837432861328 3.48128628730773926
-4.89131641387939453 18.6704635620117188 3.53699946403503418
-3.3807225227355957 20.2975730895996094 3.53062629699707031
-6.29511594772338867 17.2082023620605469 3.35674357414245605
-5.2186131477355957 18.3448657989501953 3.4376838207244873
-4.63466787338256836 18.9689903259277344 3.45339107513427734
-4.70694112777709961 18.8881874084472656 3.46474027633666992
-5.62219429016113281 17.9205951690673828 3.40037798881530762
-4.71319770812988281 18.8719196319580078 3.50037598609924316
-3.30090761184692383 20.3882541656494141 3.51268959045410156
-6.26947259902954102 17.2510395050048828 3.29977107048034668
-5.95311117172241211 17.5588588714599609 3.4215538501739502
-5.15222072601318359 18.3956260681152344 3.51496291160583496
-6.2357177734375 17.2934036254882812 3.27718853950500488
-4.16906642913818359 19.4583244323730469 3.49694681167602539
-6.02873659133911133 17.4964866638183594 3.35054278373718262
-2.32483100891113281 21.3823909759521484 3.69547390937805176
-3.91927862167358398 19.6762828826904297 3.66009783744812012
-3.66084456443786621 19.9531230926513672 3.66492438316345215
-2.80689501762390137 20.8751068115234375 3.65964436531066895
-4.91684818267822266 18.6208171844482422 3.6027376651763916
-3.34081411361694336 20.2942428588867188 3.67591738700866699
-2.28777337074279785 21.4137210845947266 3.72079181671142578
-4.82848358154296875 18.7352256774902344 3.54626154899597168
-4.23078632354736328 19.3496265411376953 3.63355588912963867
-3.6991569995880127 19.9084911346435547 3.6747734546661377
-3.30026674270629883 20.3465061187744141 3.65069127082824707
-4.20027351379394531 19.3871421813964844 3.61991477012634277
-2.93303155899047852 20.7459564208984375 3.63971328735351562
-3.65695905685424805 19.9702892303466797 3.62672019004821777
-4.49180269241333008 19.0832233428955078 3.58982610702514648
-4.31775760650634766 19.2631683349609375 3.61219024658203125
-3.26075983047485352 20.3819503784179688 3.67166924476623535
-3.90833258628845215 19.6851558685302734 3.66869115829467773
-5.0631709098815918 18.4833774566650391 3.54318618774414062
-2.2311251163482666 21.4928245544433594 3.66763496398925781
-5.01936483383178711 18.5183811187744141 3.57909965515136719
-2.86003637313842773 20.8286914825439453 3.6277155876159668
-4.89910888671875 18.6328659057617188 3.62354421615600586
-2.77654290199279785 20.8821525573730469 3.73517346382141113
-6.21815919876098633 17.2436637878417969 3.52849221229553223
-5.77050685882568359 17.6910438537597656 3.62610173225402832
-3.54138660430908203 20.0468521118164062 3.76581859588623047
-3.98945975303649902 19.5747127532958984 3.73395156860351562
-5.10464334487915039 18.4002094268798828 3.65307450294494629
-4.22843647003173828 19.3262863159179688 3.7077949047088623
-4.41685390472412109 19.1281299591064453 3.69336485862731934
-6.18155622482299805 17.2785625457763672 3.54102182388305664
-4.98173666000366211 18.5074653625488281 3.72199916839599609
-3.1893153190612793 20.4179744720458984 3.79047584533691406
-4.81906795501708984 18.7095832824707031 3.65049529075622559
-5.88182544708251953 17.5839614868164062 3.59055113792419434
-3.78923177719116211 19.7879581451416016 3.74206757545471191
-5.29121685028076172 18.1862926483154297 3.68665337562561035
-4.09078884124755859 19.4621772766113281 3.74233436584472656
-5.51238393783569336 17.9667263031005859 3.63446164131164551
-6.36392879486083984 17.0814285278320312 3.54149007797241211
-3.07901930809020996 20.4404697418212891 4.00316858291625977
-2.68932414054870605 20.9260196685791016 3.86748027801513672
-3.89074921607971191 19.6320590972900391 3.84956693649291992
-4.21703815460205078 19.3082962036132812 3.7852630615234375
-3.50748705863952637 20.0324554443359375 3.88189888000488281
-4.07860088348388672 19.4426383972167969 3.8190453052520752
-2.91820836067199707 20.6281089782714844 3.97452735900878906
-3.6005244255065918 19.9661293029785156 3.80770492553710938
-3.80415201187133789 19.7394351959228516 3.82053399085998535
-2.74041271209716797 20.8694515228271484 3.87003421783447266
-3.3455202579498291 20.1906147003173828 3.91930699348449707
-3.2989192008972168 20.28924560546875 3.81589388847351074
-2.34282493591308594 21.2998142242431641 3.87134075164794922
-3.32845687866210938 20.2320976257324219 3.869903564453125
-2.76382255554199219 20.8127460479736328 3.93737149238586426
-4.1167140007019043 19.3797321319580078 3.86545014381408691
-2.73527693748474121 20.80767822265625 4.01475811004638672
-2.36884617805480957 21.1804714202880859 4.06720495223999023
-5.56839609146118164 17.8541355133056641 3.76236438751220703
-4.23065519332885742 19.2812061309814453 3.81176185607910156
-2.45748496055603027 21.1540775299072266 3.91743874549865723
-4.24556684494018555 19.2693424224853516 3.80251884460449219
-5.36021137237548828 18.0945491790771484 3.73066496849060059
-2.23660063743591309 21.3995437622070312 3.90446352958679199
-4.13279914855957031 19.3751430511474609 3.83783721923828125
-4.27703428268432617 19.1635646820068359 3.95581531524658203
-5.79549217224121094 17.6029529571533203 3.77283430099487305
-4.09608936309814453 19.3542461395263672 3.96760439872741699
-6.41832685470581055 16.9083061218261719 3.8136141300201416
-4.54416847229003906 18.878936767578125 3.94503450393676758
-6.20058107376098633 17.1489582061767578 3.80402684211730957
-4.91825580596923828 18.4997673034667969 3.88869071006774902
-5.17282676696777344 18.2243747711181641 3.88723230361938477
-3.93470120429992676 19.5239925384521484 3.97881436347961426
-6.01976490020751953 17.3306007385253906 3.83472633361816406
-5.54760169982910156 17.8726959228515625 3.77090048789978027
-3.79403138160705566 19.69189453125 3.94620656967163086
-3.57320880889892578 19.9226398468017578 3.96476030349731445
-4.8934326171875 18.504547119140625 3.93572783470153809
-3.94382143020629883 19.5290660858154297 3.94702601432800293
-4.92087841033935547 18.4800567626953125 3.92452335357666016
-6.24947786331176758 17.1146831512451172 3.76418590545654297
-5.21768379211425781 18.1862564086914062 3.86486434936523438
-6.55700063705444336 16.7483062744140625 3.83403253555297852
-5.13697195053100586 18.2577877044677734 3.89885807037353516
-2.9388427734375 20.5705089569091797 4.04993152618408203
-3.06421971321105957 20.4521884918212891 4.01243686676025391
-5.79734706878662109 17.5339546203613281 3.91515326499938965
-5.39054489135742188 17.9270267486572266 4.00347089767456055
-6.45574569702148438 16.7255306243896484 4.07123708724975586
-6.22814512252807617 17.0502128601074219 3.94235134124755859
-4.52209615707397461 18.8392772674560547 4.06154632568359375
-3.27783727645874023 20.1892967224121094 4.07235956192016602
-4.4434657096862793 18.9117755889892578 4.0838017463684082
-4.68955516815185547 18.6923694610595703 4.00153303146362305
-5.18997716903686523 18.0895862579345703 4.09789657592773438
-6.27258777618408203 16.9690818786621094 3.99736905097961426
-6.15443754196166992 17.1253795623779297 3.95108199119567871
-4.94421577453613281 18.3631191253662109 4.08844757080078125
-5.56647491455078125 17.7682323455810547 3.9479219913482666
-4.34246015548706055 19.0452899932861328 4.04440784454345703
-3.75886845588684082 19.6610584259033203 4.07882022857666016
-4.51033973693847656 18.8322772979736328 4.09490489959716797
