ply
format ascii 1.0
element vertex 718
property float x
property float y
property float z
end_header
0.0169085226953029633 0.170237943530082703 0.0492935292422771454
0.0169936269521713257 0.170647114515304565 0.049599863588809967
0.00877519603818655014 0.161331981420516968 0.0486848838627338409
0.0126306898891925812 0.165272340178489685 0.0487062670290470123
0.0115944938734173775 0.164288759231567383 0.048772122710943222
0.0181269645690917969 0.171811714768409729 0.0496121421456336975
0.00819634459912776947 0.159726247191429138 0.047664254903793335
0.00676952768117189407 0.1588592529296875 0.0482671484351158142
0.00570131372660398483 0.156792238354682922 0.0472542271018028259
0.00663720956072211266 0.157671988010406494 0.0471800155937671661
-0.00305585679598152637 0.147046446800231934 0.0463852770626544952
0.000879547151271253824 0.151933744549751282 0.0472999997437000275
-0.00137386994902044535 0.149701833724975586 0.0473613105714321136
-0.0016363516915589571 0.14890173077583313 0.0468106605112552643
0.00883094780147075653 0.160686969757080078 0.0479900315403938293
0.00297020748257637024 0.154259130358695984 0.0475061088800430298
0.000744157994631677866 0.15191185474395752 0.0474195629358291626
0.00933312159031629562 0.16094544529914856 0.0477296523749828339
0.0126192020252346992 0.163267776370048523 0.0465917102992534637
0.00415688985958695412 0.154877349734306335 0.0468941777944564819
0.0206215940415859222 0.172784507274627686 0.0480779744684696198
0.0199881512671709061 0.17094103991985321 0.046739283949136734
0.00106988451443612576 0.151228010654449463 0.0463453158736228943
0.0209341496229171753 0.172512799501419067 0.0474153682589530945
0.00147799728438258171 0.151625558733940125 0.0463227629661560059
0.00962421391159296036 0.160004302859306335 0.0463695600628852844
0.0150200184434652328 0.166754081845283508 0.04774455726146698
0.00679909065365791321 0.157693415880203247 0.04701961949467659
0.0176266040652990341 0.168841645121574402 0.0470948591828346252
0.0164777133613824844 0.167505651712417603 0.0469154193997383118
0.00196375348605215549 0.152197152376174927 0.0464061684906482697
0.00454652449116110802 0.154940769076347351 0.0465185865759849548
0.00439255358651280403 0.154151186347007751 0.0457789227366447449
0.0116415927186608315 0.161871582269668579 0.0461408160626888275
0.00107961776666343212 0.150092244148254395 0.0449798516929149628
-0.000586582929827272892 0.148501381278038025 0.0451160073280334473
0.00603118259459733963 0.155707493424415588 0.0456351637840270996
0.00871926639229059219 0.15834943950176239 0.0455055274069309235
-0.000432827189797535539 0.149416789412498474 0.0460213832557201385
0.00700003607198596001 0.156567767262458801 0.04547862708568573
-0.000567043200135231018 0.148314610123634338 0.0448691025376319885
0.0150461150333285332 0.165407851338386536 0.0462037622928619385
0.00277906749397516251 0.152068525552749634 0.045263342559337616
0.0022576178889721632 0.150837868452072144 0.0443857237696647644
0.0120099782943725586 0.161059468984603882 0.0446259528398513794
0.00200692564249038696 0.150783956050872803 0.0446594394743442535
0.0160881094634532928 0.165361076593399048 0.0447629578411579132
0.0158941838890314102 0.164946869015693665 0.0444754511117935181
0.0089196469634771347 0.158188387751579285 0.0450429506599903107
0.0162731129676103592 0.165256783366203308 0.0443678572773933411
0.0128353824838995934 0.162215545773506165 0.0450362376868724823
0.00685352692380547523 0.155590415000915527 0.0444124825298786163
0.0176826771348714828 0.167577832937240601 0.0455332882702350616
0.014212203212082386 0.163962408900260925 0.0454773120582103729
0.00493809999898076057 0.153591364622116089 0.0443767309188842773
0.00983491633087396622 0.158560141921043396 0.0442780368030071259
0.0210456103086471558 0.170117706060409546 0.0442961938679218292
0.0180085785686969757 0.167589098215103149 0.0450986027717590332
0.00946395844221115112 0.157639265060424805 0.043531809002161026
0.00285995099693536758 0.151362285017967224 0.0442561358213424683
0.00253650126978754997 0.150180637836456299 0.043073803186416626
-0.00263891415670514107 0.144893437623977661 0.0431286916136741638
0.00999450869858264923 0.158276021480560303 0.0436581671237945557
0.0143471341580152512 0.162933528423309326 0.0439057499170303345
-0.000916507968213409185 0.146894484758377075 0.0434467382729053497
0.0123002901673316956 0.160524263978004456 0.043484177440404892
0.00611428543925285339 0.153964847326278687 0.0432157479226589203
0.00259248749352991581 0.151033192873001099 0.0441811531782150269
0.0215901080518960953 0.170339688658714294 0.0438383109867572784
-0.00149362697266042233 0.146099463105201721 0.0431667007505893707
0.0132178571075201035 0.161092236638069153 0.0428910516202449799
0.0224375855177640915 0.170706778764724731 0.0430041961371898651
0.00501023046672344208 0.152317166328430176 0.0424363315105438232
0.0217257831245660782 0.169216334819793701 0.0417691394686698914
0.0238297674804925919 0.171406745910644531 0.0417889244854450226
0.00241457810625433922 0.149660885334014893 0.0424872823059558868
0.0177666563540697098 0.165134817361831665 0.0417978167533874512
0.0186406802386045456 0.166708573698997498 0.0428941771388053894
0.0230403803288936615 0.171779811382293701 0.0437400639057159424
0.0164272747933864594 0.164784759283065796 0.0434970594942569733
0.0122130662202835083 0.16010911762714386 0.0429847948253154755
0.0214934330433607101 0.169120222330093384 0.0420058965682983398
0.00839895009994506836 0.156001359224319458 0.0427243858575820923
0.0175745543092489243 0.165223538875579834 0.0422692671418190002
0.0097114909440279007 0.15742725133895874 0.0428341589868068695
0.0198826640844345093 0.167585164308547974 0.0422232896089553833
0.00190108141396194696 0.148426145315170288 0.041322365403175354
0.00248202797956764698 0.14937940239906311 0.0419074855744838715
-0.00172741501592099667 0.144155964255332947 0.0404670871794223785
0.00860320962965488434 0.155575379729270935 0.041674979031085968
-0.00354651268571615219 0.142634540796279907 0.0410680286586284637
0.00886113476008176804 0.155554443597793579 0.0411963313817977905
-0.000852263823617249727 0.145081877708435059 0.0405004359781742096
-0.00352351018227636814 0.142367571592330933 0.0405845865607261658
0.01058155857026577 0.157580792903900146 0.041604653000831604
0.00332975061610341072 0.150109186768531799 0.0416620150208473206
0.00172013265546411276 0.148631453514099121 0.0419750846922397614
0.00448769703507423401 0.150803655385971069 0.0408239178359508514
0.000369897286873310804 0.146851122379302979 0.0413387343287467957
0.00354977627284824848 0.149953722953796387 0.0410249009728431702
0.0136732291430234909 0.160402864217758179 0.0409632027149200439
-0.00254964781925082207 0.142939344048500061 0.0397641658782958984
0.000675852061249315739 0.146426409482955933 0.0400330200791358948
-0.000251544872298836708 0.14504203200340271 0.0391755364835262299
0.00719412043690681458 0.153468057513237 0.0405656285583972931
0.0178305190056562424 0.164638280868530273 0.0407804697751998901
-0.00193973223213106394 0.142972886562347412 0.0385360866785049438
0.0101484367623925209 0.156683817505836487 0.0408565700054168701
0.00285127595998346806 0.148563206195831299 0.0397748909890651703
0.013596673496067524 0.160057753324508667 0.04042072594165802
0.0158330425620079041 0.162484392523765564 0.0406253300607204437
0.0109753292053937912 0.157364070415496826 0.0404887944459915161
-0.00345008308067917824 0.14123961329460144 0.0382049717009067535
-0.00413721520453691483 0.140915513038635254 0.0390033833682537079
0.023275790736079216 0.1705922931432724 0.0413706935942173004
0.0135948322713375092 0.159807667136192322 0.0399084500968456268
0.0149612165987491608 0.161224737763404846 0.0398969352245330811
0.0224257763475179672 0.169342592358589172 0.0406144298613071442
0.0228541381657123566 0.169668093323707581 0.0403645411133766174
0.00828491616994142532 0.15401439368724823 0.0393594130873680115
0.0177401546388864517 0.163992807269096375 0.0396371707320213318
0.0145232779905200005 0.160284951329231262 0.0388936549425125122
0.022373909130692482 0.169400542974472046 0.040846560150384903
0.0109584983438253403 0.156661972403526306 0.0390772968530654907
0.0103907249867916107 0.156040370464324951 0.0390140935778617859
0.003456473583355546 0.148482710123062134 0.0383133105933666229
0.0170047394931316376 0.162965163588523865 0.0390939824283123016
0.0153546873480081558 0.161081165075302124 0.03874969482421875
0.0128278192132711411 0.158489689230918884 0.0388314388692378998
-0.00105426332447677851 0.143697306513786316 0.0381288304924964905
0.0144392065703868866 0.160222351551055908 0.0389453358948230743
0.00277888798154890537 0.14750497043132782 0.0376053415238857269
0.00222439505159854889 0.146568089723587036 0.0366579405963420868
0.0147478319704532623 0.160297617316246033 0.0383642688393592834
0.0104058580473065376 0.155754014849662781 0.038346506655216217
0.00439791008830070496 0.14921104907989502 0.0376434139907360077
-0.00499581499025225639 0.139522895216941833 0.0379806682467460632
0.0203911885619163513 0.166327223181724548 0.0387164987623691559
-0.000981454271823167801 0.143016919493675232 0.0361242033541202545
0.00163091660942882299 0.146223142743110657 0.0373871661722660065
-0.00513195712119340897 0.138833999633789062 0.0365320630371570587
0.0167868416756391525 0.162548363208770752 0.0386827960610389709
-0.0019243345595896244 0.1425972580909729 0.0376229248940944672
0.00100641651079058647 0.145446240901947021 0.0370575934648513794
0.00469595193862915039 0.149264112114906311 0.0369587913155555725
0.00855359900742769241 0.153481930494308472 0.0374542921781539917
-0.000525918323546648026 0.143684536218643188 0.0366320312023162842
0.00185359083116054535 0.145883843302726746 0.0358455739915370941
0.00684488797560334206 0.15130239725112915 0.0363822765648365021
0.0142896464094519615 0.159079432487487793 0.0363362357020378113
0.0120167667046189308 0.156650349497795105 0.0361982882022857666
0.0203467588871717453 0.165505841374397278 0.0365734361112117767
0.0231889672577381134 0.169069826602935791 0.0382071323692798615
0.00913327746093273163 0.153849184513092041 0.0368018187582492828
0.00138760823756456375 0.145383864641189575 0.0358118116855621338
0.0179072599858045578 0.163522005081176758 0.0381554774940013885
0.00884484034031629562 0.153252825140953064 0.0359846577048301697
0.0205118879675865173 0.166153699159622192 0.0378918200731277466
0.0176316574215888977 0.16258770227432251 0.0363630056381225586
0.011442430317401886 0.156419962644577026 0.0372276715934276581
0.021414460614323616 0.166593700647354126 0.0364905409514904022
0.0157636906951665878 0.160855159163475037 0.0369818806648254395
0.0191393755376338959 0.164583295583724976 0.0375210754573345184
0.00322359125129878521 0.147406205534934998 0.0360902398824691772
0.0136200031265616417 0.158513277769088745 0.0367105454206466675
0.00677146762609481812 0.15090690553188324 0.0353567712008953094
0.0048463442362844944 0.148706257343292236 0.0346850790083408356
-0.00255420943722128868 0.140914559364318848 0.0346046648919582367
0.00584768643602728844 0.149888664484024048 0.0351758524775505066
-0.00442902091890573502 0.139166951179504395 0.0354317687451839447
-0.00299806660041213036 0.140212595462799072 0.0337210111320018768
0.015453181229531765 0.160182774066925049 0.0359579101204872131
0.0084977736696600914 0.152829080820083618 0.0357673726975917816
0.0117768002673983574 0.156295135617256165 0.0358543843030929565
-0.00162861263379454613 0.142045348882675171 0.0352000035345554352
0.0148650510236620903 0.159591376781463623 0.0360556803643703461
-0.0074854949489235878 0.135382756590843201 0.0332781374454498291
-0.00412929710000753403 0.139483809471130371 0.0354398898780345917
-0.00689881946891546249 0.136124521493911743 0.0337492004036903381
0.0148800136521458626 0.159448817372322083 0.0354629196226596832
0.0196114201098680496 0.164592370390892029 0.0361213125288486481
0.0135954534634947777 0.157655477523803711 0.0336442217230796814
0.0161506533622741699 0.160372108221054077 0.0337564907968044281
0.0236124955117702484 0.168465301394462585 0.03474445641040802
0.000418268784414976835 0.143812611699104309 0.0337532088160514832
0.0154751725494861603 0.160066887736320496 0.0354306288063526154
0.0110255060717463493 0.155056670308113098 0.034082069993019104
0.021152174100279808 0.165665045380592346 0.0338750705122947693
0.0185716785490512848 0.162935629487037659 0.0338197872042655945
0.0176024120301008224 0.162239909172058105 0.0351585149765014648
0.00766155309975147247 0.151570245623588562 0.0343057140707969666
0.0132038742303848267 0.157401964068412781 0.0342987440526485443
-0.00111052952706813812 0.142148286104202271 0.0335253514349460602
0.0249161794781684875 0.169708028435707092 0.0342104434967041016
0.0165506768971681595 0.161231860518455505 0.0355666391551494598
0.0179603714495897293 0.162611976265907288 0.0351391918957233429
0.0205192025750875473 0.165369510650634766 0.0354044809937477112
-0.000834632024634629488 0.142442867159843445 0.0335426293313503265
0.0151849789544939995 0.15947549045085907 0.0342507287859916687
0.00723603740334510803 0.15083564817905426 0.0329519025981426239
-0.000314777193125337362 0.142902955412864685 0.0331371128559112549
0.016314992681145668 0.160505533218383789 0.0335394777357578278
0.00788390543311834335 0.151502266526222229 0.0328498855233192444
0.0151294730603694916 0.159229278564453125 0.0333793126046657562
-0.00758990086615085602 0.135133296251296997 0.0325371623039245605
0.000355969677912071347 0.143420785665512085 0.0319718010723590851
0.000612637260928750038 0.143630877137184143 0.031599290668964386
0.00367035390809178352 0.146924376487731934 0.032023303210735321
0.00812871754169464111 0.151687696576118469 0.0324025042355060577
0.0133569929748773575 0.157289564609527588 0.0329456068575382233
0.0113622117787599564 0.155218973755836487 0.0331487841904163361
0.00641917809844017029 0.149947315454483032 0.0327864661812782288
0.00212271697819232941 0.145382657647132874 0.0325788781046867371
0.00999855156987905502 0.153756260871887207 0.0329972058534622192
0.0124312574043869972 0.156277209520339966 0.0327236391603946686
0.0171405505388975143 0.161323800683021545 0.0332176461815834045
-0.00383913819678127766 0.13899502158164978 0.0319609642028808594
0.00956709310412406921 0.15308205783367157 0.031428702175617218
0.0204564277082681656 0.164709120988845825 0.0322697758674621582
0.00271489494480192661 0.145873114466667175 0.0317465774714946747
0.00237058661878108978 0.145479217171669006 0.0315129682421684265
-0.00539041217416524887 0.137172073125839233 0.0307529997080564499
0.0169226564466953278 0.160894513130187988 0.0316703096032142639
0.022926652804017067 0.167206853628158569 0.0313582234084606171
0.0163277164101600647 0.160271435976028442 0.0317201800644397736
-0.000223943381570279598 0.142668545246124268 0.030994366854429245
0.0242257732897996902 0.168774977326393127 0.0328852608799934387
0.0252409931272268295 0.16983717679977417 0.0327919609844684601
0.00806341227144002914 0.151569530367851257 0.0320458188652992249
0.0189086031168699265 0.163191929459571838 0.0332184098660945892
0.0180102307349443436 0.162162348628044128 0.0325944498181343079
0.0116669358685612679 0.155278488993644714 0.0312308520078659058
0.012453046627342701 0.156258627772331238 0.0324012823402881622
0.0151981553062796593 0.159032553434371948 0.0313744395971298218
0.019179467111825943 0.163229718804359436 0.0312572009861469269
0.00990205630660057068 0.153430506587028503 0.0313819572329521179
0.00713096372783184052 0.150595188140869141 0.0321416407823562622
-0.00769556965678930283 0.134675756096839905 0.0298505146056413651
0.00490883272141218185 0.148089885711669922 0.0309107173234224319
-0.00409724609926342964 0.138459578156471252 0.0293819587677717209
-0.00417483272030949593 0.138448864221572876 0.0305892676115036011
0.00160759896971285343 0.144568696618080139 0.0304998550564050674
0.00841911137104034424 0.151803389191627502 0.0308294184505939484
0.00896028801798820496 0.152340516448020935 0.0302192289382219315
0.011844223365187645 0.155403450131416321 0.0303558371961116791
-0.00721531035378575325 0.13515317440032959 0.0293217990547418594
-0.00562026258558034897 0.136816725134849548 0.0288825146853923798
-0.00402385415509343147 0.138524621725082397 0.0291675794869661331
0.0149677060544490814 0.158726498484611511 0.0306000914424657822
0.00745773641392588615 0.150756940245628357 0.030354626476764679
0.00169055082369595766 0.144588053226470947 0.0293428432196378708
0.0223131664097309113 0.166544869542121887 0.0312351640313863754
0.00280830636620521545 0.145848944783210754 0.0306414999067783356
0.0114266388118267059 0.154990002512931824 0.0308435261249542236
0.00187642069067806005 0.144874662160873413 0.0308582540601491928
0.0168904364109039307 0.160757318139076233 0.0301594845950603485
0.00986645091325044632 0.153272554278373718 0.0288193356245756149
0.00636023562401533127 0.14954531192779541 0.0288811624050140381
0.0151930637657642365 0.158953309059143066 0.0302182082086801529
0.00960348173975944519 0.152991294860839844 0.0286848247051239014
0.00592366140335798264 0.149082750082015991 0.0290136523544788361
0.0233076680451631546 0.167586401104927063 0.0306408051401376724
0.0206891018897294998 0.164805158972740173 0.0308834295719861984
0.0157773457467556 0.159577235579490662 0.0304370969533920288
0.0212464574724435806 0.165379792451858521 0.0294199511408805847
0.0198143180459737778 0.163872435688972473 0.0306703541427850723
0.00429498450830578804 0.147356688976287842 0.0294718556106090546
0.00807099603116512299 0.151363968849182129 0.0288545750081539154
0.0226889718323945999 0.166908159852027893 0.0289804749190807343
0.0252812132239341736 0.169689074158668518 0.0309911612421274185
0.015955531969666481 0.159754320979118347 0.0294305998831987381
0.0223038922995328903 0.166498631238937378 0.0289719719439744949
0.0213610399514436722 0.165510937571525574 0.0301766060292720795
0.0118250064551830292 0.155364200472831726 0.0295670852065086365
0.00307361828163266182 0.146053582429885864 0.0291072186082601547
0.0206469856202602386 0.164751365780830383 0.0301497671753168106
-0.00954122096300125122 0.132644414901733398 0.0279502235352993011
0.0100374016910791397 0.1534900963306427 0.0276630129665136337
0.00800855457782745361 0.151329740881919861 0.0276973061263561249
-0.010043649934232235 0.132186293601989746 0.026286683976650238
-0.011120242066681385 0.131054580211639404 0.0259859040379524231
0.010781790129840374 0.154243350028991699 0.0285072457045316696
0.0206208024173974991 0.164707973599433899 0.0286051444709300995
-0.00857080705463886261 0.133691594004631042 0.0276322904974222183
-0.00294731371104717255 0.139682650566101074 0.0274704694747924805
-0.0109958983957767487 0.131191849708557129 0.0258779879659414291
-0.0106300106272101402 0.131495997309684753 0.0277305692434310913
0.00925125833600759506 0.152658671140670776 0.0275528226047754288
-0.0112661886960268021 0.130840808153152466 0.0272578597068786621
0.00149420893285423517 0.144428610801696777 0.027035985141992569
0.00614396622404456139 0.149318620562553406 0.0282871033996343613
-0.0117488652467727661 0.130351394414901733 0.0267319381237030029
-0.00193607888650149107 0.140788644552230835 0.0268180165439844131
-0.0100803496316075325 0.132106021046638489 0.0271830204874277115
-0.000841395987663418055 0.141895771026611328 0.0280724279582500458
-0.00197851727716624737 0.140744119882583618 0.0268042143434286118
0.0182981062680482864 0.162339016795158386 0.0273528099060058594
0.0221154019236564636 0.166531041264533997 0.0262511670589447021
0.0143197523429989815 0.158162370324134827 0.0266298055648803711
0.0183051582425832748 0.16227586567401886 0.0280408747494220734
-0.0012616331223398447 0.141542240977287292 0.026349363848567009
0.00678388960659503937 0.150061696767807007 0.0271017793565988541
0.00615966971963644028 0.149460926651954651 0.0264571812003850937
0.00737200584262609482 0.150762319564819336 0.0263987742364406586
0.0097883325070142746 0.153243646025657654 0.0273775607347488403
0.0200754851102828979 0.164237841963768005 0.0273561328649520874
0.0118885776028037071 0.155536755919456482 0.0269009936600923538
0.0230913013219833374 0.167524725198745728 0.0267287902534008026
0.00646085897460579872 0.149736151099205017 0.0269108135253190994
0.0141678759828209877 0.158002838492393494 0.0266029760241508484
0.0156357549130916595 0.159502238035202026 0.0272750500589609146
0.00570913497358560562 0.148987457156181335 0.0263799615204334259
-0.0032166801393032074 0.139479473233222961 0.0260938983410596848
0.019749131053686142 0.163839638233184814 0.0278377383947372437
0.0184987019747495651 0.16252647340297699 0.0276144817471504211
0.0149711985141038895 0.158827751874923706 0.026928560808300972
0.0160197857767343521 0.159855738282203674 0.0278283786028623581
0.00140951178036630154 0.144505053758621216 0.0254826601594686508
0.000123729012557305396 0.143165573477745056 0.0252546481788158417
0.000902173633221536875 0.14409010112285614 0.0246556419879198074
-0.00322385923936963081 0.139539480209350586 0.0255613923072814941
-0.0105733918026089668 0.1318463534116745 0.0244962312281131744
0.010506276972591877 0.154280468821525574 0.0251565352082252502
0.0175538789480924606 0.161709368228912354 0.0258417632430791855
-0.00781226949766278267 0.134737923741340637 0.0248875487595796585
0.0144264204427599907 0.158417880535125732 0.0255040228366851807
0.0184571128338575363 0.162696853280067444 0.0256998185068368912
0.00429544970393180847 0.147706329822540283 0.0247299466282129288
0.00456199096515774727 0.147928223013877869 0.0251392759382724762
-0.013621707446873188 0.128650695085525513 0.02408578060567379
-0.0135848792269825935 0.128763213753700256 0.0236110854893922806
0.0018778056837618351 0.145086199045181274 0.0249602571129798889
-0.00205852300859987736 0.14085996150970459 0.0250769387930631638
0.00109915342181921005 0.144247367978096008 0.0250017177313566208
-0.00727762654423713684 0.135198473930358887 0.025608159601688385
-0.00314538017846643925 0.139671072363853455 0.0252519231289625168
-0.00964482501149177551 0.132647112011909485 0.0257420632988214493
0.0102568101137876511 0.154336646199226379 0.0236436240375041962
0.0173022355884313583 0.161931782960891724 0.0235093478113412857
0.0255753491073846817 0.170441910624504089 0.0252113509923219681
-0.00181565515231341124 0.141291186213493347 0.0240150690078735352
-0.00386366364546120167 0.139130324125289917 0.0238404255360364914
0.0193291809409856796 0.163949653506278992 0.0242320355027914047
0.0207751709967851639 0.165597930550575256 0.0237972047179937363
0.0208911914378404617 0.16541232168674469 0.0252093225717544556
0.016537422314286232 0.160833179950714111 0.0247718319296836853
0.0113934492692351341 0.155363708734512329 0.0245246030390262604
0.00609242729842662811 0.149797618389129639 0.023949379101395607
0.00800809264183044434 0.151906251907348633 0.0237148087471723557
0.024929465726017952 0.16959768533706665 0.0258971992880105972
0.0222156215459108353 0.166908696293830872 0.0248717721551656723
0.0199159849435091019 0.164534702897071838 0.0244372673332691193
-0.00200499128550291061 0.141121774911880493 0.0238607469946146011
-0.00451566698029637337 0.13848307728767395 0.0235996115952730179
0.0165575500577688217 0.161132916808128357 0.0235057100653648376
0.0239671654999256134 0.168852329254150391 0.0245860721915960312
0.0226636976003646851 0.167535185813903809 0.0242101848125457764
0.0177119970321655273 0.1620054692029953 0.0251771192997694016
0.0214653182774782181 0.166146636009216309 0.0246731340885162354
0.02190435491502285 0.166811287403106689 0.0237934980541467667
-0.000865626789163798094 0.142645999789237976 0.0226412508636713028
-0.00521317915990948677 0.13785417377948761 0.0230953004211187363
-0.00875528436154127121 0.134008899331092834 0.0232454575598239899
0.0149398362264037132 0.15947270393371582 0.0232104994356632233
-0.0151507249101996422 0.12755158543586731 0.0217018052935600281
0.00417325599119067192 0.148042395710945129 0.0227033756673336029
0.000901796622201800346 0.144604220986366272 0.0224185828119516373
-0.010373976081609726 0.132751509547233582 0.0214457139372825623
-0.0022014593705534935 0.141052156686782837 0.0232348795980215073
-0.0125826755538582802 0.130122929811477661 0.0224022101610898972
-0.0057668834924697876 0.13738587498664856 0.0226223841309547424
-0.00129345082677900791 0.142023816704750061 0.0232490338385105133
-0.00124705943744629622 0.142295852303504944 0.0224184747785329819
0.00478403829038143158 0.148567810654640198 0.0231920052319765091
0.00165332015603780746 0.145179003477096558 0.0232878252863883972
-0.00489948829635977745 0.138467788696289062 0.0220612809062004089
0.000227547527174465358 0.143955618143081665 0.0221355892717838287
-0.0156932957470417023 0.127185642719268799 0.0208910387009382248
-0.00331161217764019966 0.140141695737838745 0.0221803896129131317
0.00821805186569690704 0.152435123920440674 0.022525399923324585
-0.0152392704039812088 0.127720147371292114 0.0207162126898765564
0.0135183911770582199 0.158011689782142639 0.0229639150202274323
0.00893671438097953796 0.153235048055648804 0.0224210880696773529
-0.00409977789968252182 0.139122247695922852 0.0228261407464742661
0.0172568950802087784 0.162688747048377991 0.0210225954651832581
0.0134744551032781601 0.15834219753742218 0.0217990279197692871
0.0107866749167442322 0.155693769454956055 0.0210560336709022522
0.00911717489361763 0.153676673769950867 0.0216887425631284714
-0.00981736928224563599 0.133460193872451782 0.0210403669625520706
0.00903054233640432358 0.153377369046211243 0.0222939886152744293
0.0205230507999658585 0.16584952175617218 0.0220947656780481339
0.00686759641394019127 0.151132121682167053 0.0220313258469104767
0.0151212625205516815 0.160177156329154968 0.0216299630701541901
0.0219675898551940918 0.167701080441474915 0.0212347880005836487
0.0102661959826946259 0.154647603631019592 0.0224806610494852066
-0.00636380212381482124 0.137298807501792908 0.02071390300989151
-0.000850389711558818817 0.143186464905738831 0.0208998583257198334
0.0101743089035153389 0.154683917760848999 0.0220821667462587357
0.0157918296754360199 0.160535737872123718 0.0227040145546197891
0.0204702410846948624 0.165819749236106873 0.0220146793872117996
0.0213681943714618683 0.166657939553260803 0.0223999880254268646
0.0233060289174318314 0.168677717447280884 0.0226111896336078644
0.00728678377345204353 0.151954129338264465 0.0209444370120763779
0.0108877690508961678 0.15547768771648407 0.0220124591141939163
0.0101075498387217522 0.154573902487754822 0.02219381183385849
0.0111348237842321396 0.155801773071289062 0.0218435712158679962
-0.0109663000330328941 0.132315546274185181 0.0207596700638532639
0.00942709017544984818 0.154228255152702332 0.0210503339767456055
-0.017571697011590004 0.125552311539649963 0.0197537019848823547
-0.0167279746383428574 0.126702755689620972 0.0191059596836566925
-0.0147545170038938522 0.128513678908348083 0.0199706330895423889
-0.00359094119630753994 0.140527546405792236 0.0200760252773761749
-0.0165431182831525803 0.126854538917541504 0.019235244020819664
0.0227784421294927597 0.168681472539901733 0.0209305770695209503
-0.0176979340612888336 0.125658467411994934 0.0190980397164821625
-0.0106344623491168022 0.132810875773429871 0.0203791167587041855
-0.00177893764339387417 0.142528146505355835 0.0199563279747962952
0.00983248651027679443 0.154895886778831482 0.0204123351722955704
0.0131270168349146843 0.158404573798179626 0.0205428749322891235
0.00218713958747684956 0.146509453654289246 0.0207695160061120987
-0.016512606292963028 0.12687353789806366 0.0192729160189628601
-0.0123815052211284637 0.131368339061737061 0.0191793404519557953
0.0113893039524555206 0.156485125422477722 0.020660053938627243
0.00472342036664485931 0.149462401866912842 0.0201890822499990463
0.0202266201376914978 0.166033998131752014 0.0206655692309141159
0.00622059451416134834 0.151404857635498047 0.0194610245525836945
0.0200242754071950912 0.166772574186325073 0.0186071917414665222
0.0159990489482879639 0.161543458700180054 0.020462915301322937
0.0201132874935865402 0.166040509939193726 0.0203875135630369186
0.00320053193718194962 0.148328095674514771 0.0190344490110874176
-0.004058043472468853 0.140408977866172791 0.0191355664283037186
0.00205995328724384308 0.146870478987693787 0.0195084773004055023
0.0216244850307703018 0.1680268794298172 0.0196409691125154495
0.00813916325569152832 0.153379708528518677 0.0196884889155626297
0.000156031150254420936 0.145114630460739136 0.01884462870657444
-0.0121096149086952209 0.131738364696502686 0.0190035570412874222
0.00324064353480935097 0.148310661315917969 0.0191653706133365631
0.0179981645196676254 0.164375588297843933 0.0190361067652702332
0.00057033350458368659 0.145532488822937012 0.0189121980220079422
0.0223914943635463715 0.169098183512687683 0.0191264543682336807
0.00761540280655026436 0.153119534254074097 0.0190270412713289261
0.0218018870800733566 0.167765691876411438 0.020615527406334877
0.00416717212647199631 0.149085581302642822 0.0196593292057514191
0.0016748353373259306 0.146798163652420044 0.0187664851546287537
-0.0101632829755544662 0.133770972490310669 0.0191716346889734268
0.00807943474501371384 0.153125360608100891 0.0200958140194416046
0.00839507114142179489 0.153692245483398438 0.0196133069694042206
0.0175388623028993607 0.16340300440788269 0.0200555548071861267
-0.00579591328278183937 0.138618379831314087 0.0189332831650972366
0.00427565211430191994 0.149751663208007812 0.0184829570353031158
-0.00852319970726966858 0.136072933673858643 0.0180550795048475266
-0.00431226752698421478 0.140698656439781189 0.0179296731948852539
0.00857204291969537735 0.154430583119392395 0.018441392108798027
0.0105886319652199745 0.156663268804550171 0.0183442514389753342
-0.0173003729432821274 0.126959323883056641 0.0171944927424192429
-0.00380287645384669304 0.141263246536254883 0.0179038401693105698
-0.0188650432974100113 0.124968066811561584 0.0178199261426925659
-0.00612561311572790146 0.138897538185119629 0.0175782293081283569
-0.016995185986161232 0.127446725964546204 0.0168622061610221863
0.0129534071311354637 0.159257739782333374 0.0182806886732578278
-0.0122971395030617714 0.131728857755661011 0.0185889415442943573
-0.0150538664311170578 0.129090264439582825 0.0178431831300258636
0.0187079533934593201 0.165386959910392761 0.0185175575315952301
0.00240995804779231548 0.148056954145431519 0.0177848543971776962
0.00769402645528316498 0.15372234582901001 0.0179231632500886917
-0.0159509982913732529 0.128446713089942932 0.0171435065567493439
-0.00124648609198629856 0.143771827220916748 0.0184641871601343155
0.0149661405012011528 0.16150270402431488 0.0181485936045646667
0.00365657499060034752 0.149099215865135193 0.0184427276253700256
0.00276912888512015343 0.148339107632637024 0.0180129352957010269
0.00724305072799324989 0.1529645174741745 0.018494071438908577
-0.0111491382122039795 0.133754506707191467 0.0169305372983217239
-0.0171055793762207031 0.12716907262802124 0.017197703942656517
-0.0642218589782714844 0.166900202631950378 0.0419009104371070862
-0.0612133592367172241 0.16829816997051239 0.044413495808839798
-0.060037367045879364 0.168744012713432312 0.0453714169561862946
-0.0591319538652896881 0.169401228427886963 0.0456463620066642761
-0.0570695102214813232 0.170075803995132446 0.0472808666527271271
-0.0580972731113433838 0.168893828988075256 0.0477094762027263641
-0.0562108047306537628 0.169509619474411011 0.0489875711500644684
-0.0295126978307962418 0.169808268547058105 0.0621558912098407745
-0.013317442499101162 0.15994030237197876 0.0642298087477684021
-0.0122470976784825325 0.163498997688293457 0.0608604401350021362
-0.0117299333214759827 0.164464086294174194 0.0606572367250919342
-0.051362060010433197 0.171518176794052124 0.0512884669005870819
-0.0518774762749671936 0.170702412724494934 0.0516964271664619446
-0.0511914417147636414 0.170425638556480408 0.0527022071182727814
-0.0515078604221343994 0.171078041195869446 0.0515637435019016266
-0.0514102689921855927 0.17082369327545166 0.0519279055297374725
-0.050980638712644577 0.171352848410606384 0.0517322942614555359
-0.0488222092390060425 0.171883955597877502 0.0528876259922981262
-0.0467190034687519073 0.170394212007522583 0.0564155057072639465
-0.0452942736446857452 0.171339154243469238 0.0557936802506446838
-0.0414921417832374573 0.1701250821352005 0.05992879718542099
-0.0406159050762653351 0.170668169856071472 0.0590901821851730347
-0.0414100624620914459 0.172079652547836304 0.0571395866572856903
-0.0413384176790714264 0.172422990202903748 0.0569528006017208099
-0.038979850709438324 0.170078665018081665 0.0607867762446403503
-0.0385402776300907135 0.170804828405380249 0.0596579089760780334
-0.0389817208051681519 0.17051522433757782 0.0599162578582763672
-0.0366799570620059967 0.169618666172027588 0.0623264983296394348
-0.0365738533437252045 0.169744044542312622 0.061978612095117569
-0.0362562946975231171 0.169847697019577026 0.0617786422371864319
-0.035832427442073822 0.17335374653339386 0.0587325878441333771
-0.0292132645845413208 0.168178319931030273 0.0645023137331008911
-0.024463774636387825 0.166367292404174805 0.0660670176148414612
-0.022177472710609436 0.165348246693611145 0.0664360299706459045
-0.0228233840316534042 0.166206970810890198 0.064910396933555603
-0.0223503634333610535 0.165978193283081055 0.0649473220109939575
-0.0204946808516979218 0.164649352431297302 0.0660247355699539185
-0.0199955888092517853 0.164589524269104004 0.0653611347079277039
-0.0196402128785848618 0.164255768060684204 0.0657874420285224915
-0.021656230092048645 0.170350760221481323 0.0620034374296665192
-0.0214783493429422379 0.170136436820030212 0.0620347708463668823
-0.0182585418224334717 0.16328352689743042 0.0664007589221000671
-0.0191865619271993637 0.169411316514015198 0.0620545633137226105
-0.0168070346117019653 0.16425013542175293 0.0631178319454193115
-0.0144076850265264511 0.16068364679813385 0.0652779117226600647
-0.0165763963013887405 0.168430179357528687 0.0618624128401279449
-0.0142328469082713127 0.162498891353607178 0.0624414458870887756
-0.0137251680716872215 0.16409580409526825 0.0614763237535953522
-0.0129105094820261002 0.16364133358001709 0.0611617378890514374
-0.0397383011877536774 0.1718892902135849 0.0580330938100814819
-0.0384816713631153107 0.170163050293922424 0.0607146210968494415
-0.0348526984453201294 0.170251324772834778 0.0612426586449146271
-0.0343737751245498657 0.169704556465148926 0.0621883012354373932
-0.032339487224817276 0.169069588184356689 0.0633403286337852478
-0.0325820520520210266 0.170269578695297241 0.0615078955888748169
-0.0330376364290714264 0.170925572514533997 0.0608430765569210052
-0.0331067629158496857 0.171798765659332275 0.0602201484143733978
-0.0305313430726528168 0.169844374060630798 0.0621008872985839844
-0.0310895927250385284 0.171183884143829346 0.0609877593815326691
-0.0299513600766658783 0.169575944542884827 0.062389027327299118
-0.0304704401642084122 0.170824557542800903 0.0612952075898647308
-0.0281878523528575897 0.168438509106636047 0.0636698007583618164
-0.0272535551339387894 0.169018223881721497 0.0627964884042739868
-0.0262005254626274109 0.169013485312461853 0.0626999065279960632
-0.0231483615934848785 0.167190566658973694 0.0637033358216285706
-0.0236889403313398361 0.168175250291824341 0.0629800781607627869
-0.0214103758335113525 0.168104484677314758 0.0625863224267959595
-0.0197649300098419189 0.167796537280082703 0.06240830197930336
-0.0177297797054052353 0.164977759122848511 0.0631404593586921692
-0.0175523776561021805 0.163364842534065247 0.0647711679339408875
-0.0147955073043704033 0.161008268594741821 0.0652737095952033997
-0.0148365218192338943 0.161230772733688354 0.0646778568625450134
-0.0162381306290626526 0.162649482488632202 0.0642803460359573364
-0.0153681244701147079 0.161829873919487 0.0643978714942932129
-0.0173751711845397949 0.166482061147689819 0.0622562430799007416
-0.0147101804614067078 0.161753743886947632 0.0635839477181434631
-0.0127918412908911705 0.161805093288421631 0.0616143867373466492
-0.0264939442276954651 0.1699933260679245 0.0620561577379703522
-0.0242499038577079773 0.169429898262023926 0.0622975751757621765
-0.0227858982980251312 0.168344840407371521 0.0627137720584869385
-0.0132180191576480865 0.162419229745864868 0.0616762675344944
-0.0323064699769020081 0.1810474693775177 -0.0152287455275654793
-0.0308265239000320435 0.179322510957717896 -0.00785684958100318909
-0.0313338153064250946 0.179916515946388245 -0.0104326242581009865
-0.0322966128587722778 0.181105613708496094 -0.0164210125803947449
-0.031107509508728981 0.179719716310501099 -0.0104993162676692009
-0.0326857976615428925 0.181306451559066772 -0.0139366714283823967
-0.0347264930605888367 0.183437272906303406 -0.0199702717363834381
-0.0334649085998535156 0.18232978880405426 -0.0198819581419229507
-0.0329819805920124054 0.181847944855690002 -0.0188433360308408737
-0.0347502864897251129 0.183454021811485291 -0.0199001617729663849
-0.033947087824344635 0.182787209749221802 -0.0205084271728992462
-0.0340654253959655762 0.182499632239341736 -0.0145712858065962791
-0.0332780741155147552 0.181495428085327148 -0.00983772985637187958
-0.0328081361949443817 0.181226685643196106 -0.0110578481107950211
-0.0326466672122478485 0.180716484785079956 -0.0063642445020377636
-0.0334905385971069336 0.182026267051696777 -0.0142943533137440681
-0.0117724994197487831 0.158065721392631531 0.0701944008469581604
-0.0119924768805503845 0.158414378762245178 0.0673630088567733765
-0.013314475305378437 0.159651100635528564 0.0664159283041954041
-0.0119393989443778992 0.158325821161270142 0.0681292340159416199
-0.0365423634648323059 0.184719368815422058 -0.0186701305210590363
-0.0351788811385631561 0.183722272515296936 -0.0189722012728452682
-0.0346992835402488708 0.18299354612827301 -0.0147136133164167404
-0.0358146876096725464 0.184293046593666077 -0.0200533103197813034
-0.0345587991178035736 0.182899907231330872 -0.0148498760536313057
-0.03530903160572052 0.183915138244628906 -0.0200713593512773514
-0.0117041170597076416 0.157734870910644531 0.074754275381565094
-0.00923242326825857162 0.155337080359458923 0.0785981491208076477
-0.0109192123636603355 0.156815186142921448 0.0785728916525840759
-0.00985140260308980942 0.155890867114067078 0.0784019380807876587
-0.0122310183942317963 0.158455431461334229 0.070497266948223114
-0.0111201349645853043 0.157195791602134705 0.0752122178673744202
-0.0143851246684789658 0.160506322979927063 0.0668255165219306946
-0.0143033061176538467 0.160461455583572388 0.0665269643068313599
-0.012986217625439167 0.159182295203208923 0.0693911910057067871
-0.0125328516587615013 0.158526316285133362 0.0733481049537658691
-0.0343838110566139221 0.182185634970664978 -0.00853224471211433411
-0.0349522307515144348 0.182520955801010132 -0.00798669829964637756
-0.0361318662762641907 0.184171825647354126 -0.0159802529960870743
-0.0345536656677722931 0.182022213935852051 -0.00585021823644638062
-0.0354502461850643158 0.183190092444419861 -0.0110956151038408279
-0.0365828126668930054 0.184219032526016235 -0.0136891352012753487
-0.0384384877979755402 0.185816451907157898 -0.0173095632344484329
-0.0372585467994213104 0.184962868690490723 -0.0164400879293680191
-0.0380506552755832672 0.185666650533676147 -0.0181791875511407852
-0.0377553775906562805 0.185126826167106628 -0.0150791648775339127
-0.0371304638683795929 0.184668362140655518 -0.0145623208954930305
-0.0157579835504293442 0.16150762140750885 0.0671795979142189026
-0.0133528504520654678 0.158667400479316711 0.0788061991333961487
-0.0148920714855194092 0.16044868528842926 0.0717558115720748901
-0.0156718362122774124 0.161530807614326477 0.0662558972835540771
-0.0127592207863926888 0.15812256932258606 0.0799167752265930176
-0.0127930967137217522 0.158128559589385986 0.0801324918866157532
-0.014536605216562748 0.160474464297294617 0.0686737075448036194
-0.0118987727910280228 0.157641172409057617 0.0780813246965408325
-0.0127209778875112534 0.158323764801025391 0.0773700252175331116
-0.0379524417221546173 0.185047969222068787 -0.0134266866371035576
-0.036236785352230072 0.183204665780067444 -0.00697952602058649063
-0.0360780060291290283 0.18280385434627533 -0.00454724347218871117
-0.0363840945065021515 0.183194428682327271 -0.00618963828310370445
-0.0366902872920036316 0.183519825339317322 -0.00731156906113028526
-0.0372925586998462677 0.184059977531433105 -0.00873728096485137939
-0.0386435277760028839 0.185309618711471558 -0.0125155383720993996
-0.0387914739549160004 0.185575276613235474 -0.0138633614405989647
-0.0383744761347770691 0.185381442308425903 -0.0140887526795268059
-0.0376267917454242706 0.184302985668182373 -0.00919230282306671143
-0.0401813648641109467 0.186447441577911377 -0.0147520387545228004
-0.0152147505432367325 0.160583958029747009 0.0726387649774551392
-0.0133959036320447922 0.158631324768066406 0.0794432163238525391
-0.0163214188069105148 0.16184486448764801 0.0678589493036270142
-0.0144454855471849442 0.15982837975025177 0.0748993009328842163
-0.0407126136124134064 0.186846867203712463 -0.0155843337997794151
-0.037851434201002121 0.183492809534072876 -0.0026921865064650774
-0.0383451282978057861 0.184194296598434448 -0.0057659633457660675
-0.0385855101048946381 0.184458598494529724 -0.00672808988019824028
-0.0390020571649074554 0.184896394610404968 -0.00825561769306659698
-0.0373218432068824768 0.183363392949104309 -0.00370565708726644516
-0.0137722901999950409 0.158966705203056335 0.0786360278725624084
-0.0159175153821706772 0.160944253206253052 0.0734582319855690002
-0.0158260650932788849 0.160495862364768982 0.0768109187483787537
-0.0168161746114492416 0.161742150783538818 0.0715517625212669373
-0.0150207187980413437 0.159959375858306885 0.0769834667444229126
-0.0163589641451835632 0.161027878522872925 0.0751740336418151855
-0.0180465299636125565 0.162322595715522766 0.0726880356669425964
-0.0187494847923517227 0.163017123937606812 0.070448651909828186
-0.0192722901701927185 0.163665443658828735 0.0677801072597503662
-0.018646974116563797 0.162957251071929932 0.0704599544405937195
-0.0171975567936897278 0.161532238125801086 0.0750236734747886658
-0.0424814522266387939 0.187775686383247375 -0.0163518451154232025
-0.0385942608118057251 0.184113055467605591 -0.0043849581852555275
-0.0412876084446907043 0.1872967928647995 -0.016684364527463913
-0.0406212732195854187 0.186521872878074646 -0.0137205282226204872
-0.0410681851208209991 0.186531156301498413 -0.0125414086505770683
-0.0416060872375965118 0.186861991882324219 -0.0131054595112800598
-0.0397434346377849579 0.184215828776359558 -0.00188205763697624207
-0.0413809865713119507 0.185968741774559021 -0.0082088615745306015
-0.0396012552082538605 0.184438362717628479 -0.0036389683373272419
-0.0412753000855445862 0.18573664128780365 -0.00706838164478540421
-0.0384319238364696503 0.18367256224155426 -0.00211158441379666328
-0.0170217640697956085 0.160966217517852783 0.0783769786357879639
-0.0166255496442317963 0.160847067832946777 0.0777036473155021667
-0.0170873478055000305 0.160771682858467102 0.0800070390105247498
-0.0164042320102453232 0.160361707210540771 0.0802957862615585327
-0.0159588474780321121 0.160109996795654297 0.0803734958171844482
-0.0180915817618370056 0.161789000034332275 0.0766439735889434814
-0.0187565255910158157 0.162032783031463623 0.0772952288389205933
-0.0199342723935842514 0.163885757327079773 0.0687723830342292786
-0.0208477824926376343 0.164605766534805298 0.0669766142964363098
-0.0200423635542392731 0.163423851132392883 0.0722327157855033875
-0.0181180462241172791 0.161546871066093445 0.0784339308738708496
-0.0431360676884651184 0.186792910099029541 -0.00913992989808320999
-0.0428522005677223206 0.186698853969573975 -0.00918114837259054184
-0.0441908165812492371 0.187207654118537903 -0.00934463459998369217
-0.0437856093049049377 0.188218861818313599 -0.0156920813024044037
-0.0431941859424114227 0.18638986349105835 -0.00681304838508367538
-0.042513970285654068 0.18582521378993988 -0.00504949362948536873
-0.0437222644686698914 0.187257096171379089 -0.0105366120114922523
-0.0452914983034133911 0.188582584261894226 -0.0147305009886622429
-0.041999034583568573 0.186079442501068115 -0.00748822325840592384
-0.0421851649880409241 0.185843914747238159 -0.00580651033669710159
-0.041536238044500351 0.184804707765579224 -0.00138164986856281757
-0.0405504517257213593 0.184315294027328491 -0.000683550082612782717
-0.0431420430541038513 0.187748908996582031 -0.0143919633701443672
-0.0229698158800601959 0.165214478969573975 0.0691789686679840088
-0.0221181921660900116 0.164812535047531128 0.0694238170981407166
-0.0220735073089599609 0.165062546730041504 0.0678094923496246338
-0.0215702392160892487 0.164155557751655579 0.0719726011157035828
-0.0215564202517271042 0.163728222250938416 0.0745025202631950378
-0.0221247486770153046 0.164237216114997864 0.0728938207030296326
-0.0197602994740009308 0.162950128316879272 0.0744457468390464783
-0.0186948589980602264 0.161744460463523865 0.0789113566279411316
-0.0201233476400375366 0.16284024715423584 0.0761109888553619385
-0.0199403055012226105 0.162311643362045288 0.0788458287715911865
-0.0177039504051208496 0.160905748605728149 0.0813349112868309021
-0.0194165408611297607 0.162126213312149048 0.0785484686493873596
-0.0186944473534822464 0.161494523286819458 0.0804399847984313965
-0.0440006367862224579 0.1865977942943573 -0.00653683068230748177
-0.0440909825265407562 0.186669990420341492 -0.00676544615998864174
-0.0436476841568946838 0.185317933559417725 -0.000622453284449875355
-0.0425473824143409729 0.184559091925621033 0.00155522068962454796
-0.043040689080953598 0.185036629438400269 -0.000112200745206791908
-0.042221706360578537 0.184643670916557312 0.000643860781565308571
-0.0467684753239154816 0.188527807593345642 -0.0122624114155769348
-0.0446726121008396149 0.18643033504486084 -0.00472172442823648453
-0.0441039726138114929 0.185534089803695679 -0.00105693365912884474
-0.0465894974768161774 0.188603535294532776 -0.0128794796764850616
-0.0477904826402664185 0.189489454030990601 -0.015636879950761795
-0.0456430912017822266 0.187288016080856323 -0.00765159493312239647
-0.047951187938451767 0.189530327916145325 -0.0156215447932481766
-0.0224199499934911728 0.163671836256980896 0.0766189992427825928
-0.0219555702060461044 0.163758784532546997 0.0752405822277069092
-0.0211114250123500824 0.161965608596801758 0.083350256085395813
-0.0212834924459457397 0.162551999092102051 0.0804956182837486267
-0.0203605536371469498 0.161882117390632629 0.0823405683040618896
-0.0212340205907821655 0.162315249443054199 0.0816871598362922668
-0.0235292855650186539 0.165495440363883972 0.0688607469201087952
-0.0257107764482498169 0.166573300957679749 0.067215651273727417
-0.02380349300801754 0.165376022458076477 0.0700415968894958496
-0.0250399112701416016 0.165943250060081482 0.0693437904119491577
-0.024252232164144516 0.165516451001167297 0.070143572986125946
-0.023387247696518898 0.164680749177932739 0.073014184832572937
-0.0242850128561258316 0.164981454610824585 0.0731109157204627991
-0.047018982470035553 0.188001558184623718 -0.00937154237180948257
-0.0445089265704154968 0.184623345732688904 0.00364911765791475773
