ply
format ascii 1.0
comment Created by CloudCompare v2.13.alpha (02/07/2023)
comment Created 2023-05-17T15:03:06
obj_info Generated by CloudCompare!
element vertex 801
property float x
property float y
property float z
property float nx
property float ny
property float nz
end_header
-2.773936 -1.828739 1.939583 -0.830587 -0.556887 0.001355 
-2.703059 -1.934814 4.849072 -0.830587 -0.556887 0.001355 
-2.820034 -1.759748 3.673957 -0.830587 -0.556887 0.001355 
-2.800589 -1.788850 1.986741 -0.830587 -0.556887 0.001355 
-2.805605 -1.781342 5.149509 -0.830587 -0.556887 0.001355 
-2.797836 -1.792970 1.418810 -0.830587 -0.556887 0.001355 
-2.721878 -1.906649 3.814933 -0.830587 -0.556887 0.001355 
-2.771911 -1.831770 3.926478 -0.830587 -0.556887 0.001355 
-2.767725 -1.838033 0.059556 -0.830587 -0.556887 0.001355 
-2.804270 -1.783341 2.488400 -0.830587 -0.556887 0.001355 
-2.787739 -1.808081 1.400016 -0.830587 -0.556887 0.001355 
-2.770227 -1.834290 2.650535 -0.830587 -0.556887 0.001355 
-2.824582 -1.752941 4.665076 -0.830587 -0.556887 0.001355 
-2.780390 -1.819080 -0.197157 -0.830587 -0.556887 0.001355 
-2.742751 -1.875410 -1.948791 -0.830587 -0.556887 0.001355 
-2.691595 -1.951971 1.112722 -0.830587 -0.556887 0.001355 
-2.742303 -1.876081 -3.521240 -0.830587 -0.556887 0.001355 
-2.713860 -1.918649 1.590658 -0.830587 -0.556887 0.001355 
-2.693422 -1.949237 -2.386953 -0.830587 -0.556887 0.001355 
-2.803749 -1.784121 -4.644402 -0.830587 -0.556887 0.001355 
-2.761798 -1.846905 -1.168598 -0.830587 -0.556887 0.001355 
-2.696583 -1.944506 -3.448926 -0.830587 -0.556887 0.001355 
-2.707341 -1.928406 -3.029781 -0.830587 -0.556887 0.001355 
-2.694607 -1.947464 4.163181 -0.830587 -0.556887 0.001355 
-2.700753 -1.938265 -1.577525 -0.830587 -0.556887 0.001355 
-2.790581 -1.803827 -3.451262 -0.830587 -0.556887 0.001355 
-2.759728 -1.850003 -2.747227 -0.830587 -0.556887 0.001355 
-2.733810 -1.888791 1.742626 -0.830587 -0.556887 0.001355 
-2.703680 -1.933885 -1.918244 -0.830587 -0.556887 0.001355 
-2.736109 -1.885351 -4.187044 -0.830587 -0.556887 0.001355 
-2.775290 -1.826713 -1.334062 -0.830587 -0.556887 0.001355 
-2.707428 -1.928275 -2.003942 -0.830587 -0.556887 0.001355 
-2.712955 -1.920004 -0.432575 -0.830587 -0.556887 0.001355 
-2.786446 -1.810017 -1.878561 -0.830587 -0.556887 0.001355 
-2.712367 -1.920883 2.824132 -0.830587 -0.556887 0.001355 
-2.774550 -1.827819 -1.225170 -0.830587 -0.556887 0.001355 
-2.702224 -1.936063 -1.313759 -0.830587 -0.556887 0.001355 
-2.764245 -1.843243 -1.339241 -0.830587 -0.556887 0.001355 
-2.753312 -1.859604 -1.602609 -0.830587 -0.556887 0.001355 
-2.694816 -1.947151 -0.865455 -0.830587 -0.556887 0.001355 
-2.808256 -1.777376 -4.396012 -0.830587 -0.556887 0.001355 
-2.752636 -1.860617 -2.811993 -0.830587 -0.556887 0.001355 
-2.791029 -1.803158 -4.133223 -0.830587 -0.556887 0.001355 
-2.724595 -1.902583 -1.688653 -0.830587 -0.556887 0.001355 
-2.736745 -1.884400 -4.320928 -0.830587 -0.556887 0.001355 
-2.702278 -1.935982 -5.067805 -0.830587 -0.556887 0.001355 
-2.705539 -1.931103 -0.514053 -0.830587 -0.556887 0.001355 
-2.695369 -1.946323 -5.078327 -0.830587 -0.556887 0.001355 
-2.755237 -1.856724 -3.073618 -0.830587 -0.556887 0.001355 
-2.743027 -1.874997 -0.783157 -0.830587 -0.556887 0.001355 
-2.778088 -1.822525 -2.660842 -0.830587 -0.556887 0.001355 
-2.694169 -1.948118 -1.027570 -0.830587 -0.556887 0.001355 
-2.716099 -1.915299 0.984601 -0.830587 -0.556887 0.001355 
-2.709772 -1.924767 -0.737246 -0.830587 -0.556887 0.001355 
-2.789433 -1.805545 -4.973398 -0.830587 -0.556887 0.001355 
-2.532896 -2.153648 -5.221544 -0.785794 -0.618487 0.001371 
-2.652909 -2.001412 -3.350091 -0.785794 -0.618487 0.001371 
-2.670363 -1.979272 -2.817259 -0.785794 -0.618487 0.001371 
-2.662780 -1.988891 2.983447 -0.785794 -0.618487 0.001371 
-2.602100 -2.065863 -2.561722 -0.785794 -0.618487 0.001371 
-2.566482 -2.111044 -3.094718 -0.785794 -0.618487 0.001371 
-2.657661 -1.995384 -3.111524 -0.785794 -0.618487 0.001371 
-2.559319 -2.120131 -4.159342 -0.785794 -0.618487 0.001371 
-2.653967 -2.000070 -0.916168 -0.785794 -0.618487 0.001371 
-2.618873 -2.044586 -5.185008 -0.785794 -0.618487 0.001371 
-2.589221 -2.082200 -3.009287 -0.785794 -0.618487 0.001371 
-2.600293 -2.068155 -1.513755 -0.785794 -0.618487 0.001371 
-2.650804 -2.004082 2.375313 -0.785794 -0.618487 0.001371 
-2.689704 -1.954737 4.656397 -0.785794 -0.618487 0.001371 
-2.597157 -2.072132 -5.284759 -0.785794 -0.618487 0.001371 
-2.586457 -2.085705 -3.224419 -0.785794 -0.618487 0.001371 
-2.684947 -1.960772 -0.315551 -0.785794 -0.618487 0.001371 
-2.640886 -2.016663 -2.369302 -0.785794 -0.618487 0.001371 
-2.673615 -1.975147 3.514637 -0.785794 -0.618487 0.001371 
-2.606588 -2.060170 -2.880934 -0.785794 -0.618487 0.001371 
-2.649080 -2.006269 1.512082 -0.785794 -0.618487 0.001371 
-2.643723 -2.013065 1.449384 -0.785794 -0.618487 0.001371 
-2.682544 -1.963820 -4.771857 -0.785794 -0.618487 0.001371 
-2.587439 -2.084460 -2.489105 -0.785794 -0.618487 0.001371 
-2.553356 -2.127694 -5.136212 -0.785794 -0.618487 0.001371 
-2.670958 -1.978518 -0.716804 -0.785794 -0.618487 0.001371 
-2.578776 -2.095449 -4.120325 -0.785794 -0.618487 0.001371 
-2.667058 -1.983465 2.147908 -0.785794 -0.618487 0.001371 
-2.630698 -2.029586 -4.930197 -0.785794 -0.618487 0.001371 
-2.545176 -2.138071 -5.038667 -0.785794 -0.618487 0.001371 
-2.673782 -1.974934 -1.289204 -0.785794 -0.618487 0.001371 
-2.561958 -2.116783 -5.162830 -0.785794 -0.618487 0.001371 
-2.572773 -2.103064 -4.079710 -0.785794 -0.618487 0.001371 
-2.678489 -1.968964 2.610524 -0.785794 -0.618487 0.001371 
-2.636049 -2.022799 1.606054 -0.785794 -0.618487 0.001371 
-2.627383 -2.033791 -0.763261 -0.785794 -0.618487 0.001371 
-2.664409 -1.986825 0.252967 -0.785794 -0.618487 0.001371 
-2.682434 -1.963960 -0.266459 -0.785794 -0.618487 0.001371 
-2.608791 -2.057375 -3.622391 -0.785794 -0.618487 0.001371 
-2.665078 -1.985976 -0.014542 -0.785794 -0.618487 0.001371 
-2.594251 -2.075819 -1.969312 -0.785794 -0.618487 0.001371 
-2.592482 -2.078064 2.392938 -0.785794 -0.618487 0.001371 
-2.557337 -2.122644 3.802271 -0.785794 -0.618487 0.001371 
-2.531684 -2.155185 3.157157 -0.785794 -0.618487 0.001371 
-2.560615 -2.118486 4.720547 -0.785794 -0.618487 0.001371 
-2.557559 -2.122363 1.377469 -0.785794 -0.618487 0.001371 
-2.560311 -2.118872 -1.032645 -0.785794 -0.618487 0.001371 
-2.531526 -2.155386 -3.465230 -0.785794 -0.618487 0.001371 
-2.537246 -2.148129 5.161833 -0.785794 -0.618487 0.001371 
-2.616017 -2.048210 2.887108 -0.785794 -0.618487 0.001371 
-2.613136 -2.051864 3.207513 -0.785794 -0.618487 0.001371 
-2.553489 -2.127526 3.196384 -0.785794 -0.618487 0.001371 
-2.528686 -2.158989 4.411215 -0.785794 -0.618487 0.001371 
-2.546482 -2.136414 -2.572322 -0.785794 -0.618487 0.001371 
-2.649495 -2.005743 5.109029 -0.785794 -0.618487 0.001371 
-2.607189 -2.059407 1.846204 -0.785794 -0.618487 0.001371 
-2.545410 -2.137774 -0.317033 -0.785794 -0.618487 0.001371 
-2.643698 -2.013096 3.855590 -0.785794 -0.618487 0.001371 
-2.631511 -2.028555 4.379307 -0.785794 -0.618487 0.001371 
-2.528505 -2.159218 1.820224 -0.785794 -0.618487 0.001371 
-2.629922 -2.030571 2.526070 -0.785794 -0.618487 0.001371 
-2.549856 -2.132134 -0.861521 -0.785794 -0.618487 0.001371 
-2.581812 -2.091599 2.869108 -0.785794 -0.618487 0.001371 
-2.533366 -2.153052 -4.739635 -0.785794 -0.618487 0.001371 
-2.539509 -2.145259 4.484320 -0.785794 -0.618487 0.001371 
-2.585846 -2.086481 0.778714 -0.785794 -0.618487 0.001371 
-2.575174 -2.100019 0.496419 -0.785794 -0.618487 0.001371 
-2.566645 -2.110838 -0.306009 -0.785794 -0.618487 0.001371 
-2.581290 -2.092260 0.169882 -0.785794 -0.618487 0.001371 
-2.553641 -2.127333 0.639529 -0.785794 -0.618487 0.001371 
-2.565332 -2.112503 -1.728342 -0.785794 -0.618487 0.001371 
-2.599282 -2.069438 0.308861 -0.785794 -0.618487 0.001371 
-2.579891 -2.094035 -0.954779 -0.785794 -0.618487 0.001371 
-2.536572 -2.148986 1.770248 -0.785794 -0.618487 0.001371 
-2.680574 -1.966319 4.727192 -0.785794 -0.618487 0.001371 
-2.606050 -2.060852 3.502588 -0.785794 -0.618487 0.001371 
-2.668280 -1.981915 4.747793 -0.785794 -0.618487 0.001371 
-2.536122 -2.149555 3.218869 -0.785794 -0.618487 0.001371 
-2.593496 -2.076777 4.116107 -0.785794 -0.618487 0.001371 
-2.556940 -2.123149 -1.376204 -0.785794 -0.618487 0.001371 
-2.586068 -2.086200 4.240534 -0.785794 -0.618487 0.001371 
-2.534289 -2.151881 -1.386011 -0.785794 -0.618487 0.001371 
-2.358422 -2.343241 5.228693 -0.735490 -0.677534 0.001380 
-2.468654 -2.223994 -0.512163 -0.735490 -0.677534 0.001380 
-2.408970 -2.288559 5.112098 -0.735490 -0.677534 0.001380 
-2.512607 -2.176445 5.230935 -0.735490 -0.677534 0.001380 
-2.485057 -2.206248 0.770776 -0.735490 -0.677534 0.001380 
-2.496495 -2.193875 -3.285758 -0.735490 -0.677534 0.001380 
-2.513384 -2.175605 -1.289292 -0.735490 -0.677534 0.001380 
-2.420453 -2.276137 4.584894 -0.735490 -0.677534 0.001380 
-2.522723 -2.165502 -3.952199 -0.735490 -0.677534 0.001380 
-2.524883 -2.163166 -3.256116 -0.735490 -0.677534 0.001380 
-2.488632 -2.202381 0.029431 -0.735490 -0.677534 0.001380 
-2.504872 -2.184813 3.365337 -0.735490 -0.677534 0.001380 
-2.497234 -2.193076 5.013686 -0.735490 -0.677534 0.001380 
-2.477780 -2.214121 1.502221 -0.735490 -0.677534 0.001380 
-2.503798 -2.185974 -0.596255 -0.735490 -0.677534 0.001380 
-2.513083 -2.175930 2.252344 -0.735490 -0.677534 0.001380 
-2.501930 -2.187995 -2.767555 -0.735490 -0.677534 0.001380 
-2.409724 -2.287744 4.024723 -0.735490 -0.677534 0.001380 
-2.446836 -2.247595 5.292494 -0.735490 -0.677534 0.001380 
-2.478707 -2.213119 5.158374 -0.735490 -0.677534 0.001380 
-2.503332 -2.186479 0.069046 -0.735490 -0.677534 0.001380 
-2.439822 -2.255183 0.657044 -0.735490 -0.677534 0.001380 
-2.509805 -2.179476 -1.594629 -0.735490 -0.677534 0.001380 
-2.508229 -2.181182 0.769582 -0.735490 -0.677534 0.001380 
-2.394199 -2.304538 3.907583 -0.735490 -0.677534 0.001380 
-2.505184 -2.184475 3.663957 -0.735490 -0.677534 0.001380 
-2.496896 -2.193441 0.391453 -0.735490 -0.677534 0.001380 
-2.507969 -2.181463 4.009913 -0.735490 -0.677534 0.001380 
-2.456185 -2.237482 1.915833 -0.735490 -0.677534 0.001380 
-2.522888 -2.165323 3.012847 -0.735490 -0.677534 0.001380 
-2.492451 -2.198250 3.198543 -0.735490 -0.677534 0.001380 
-2.505008 -2.184666 4.205665 -0.735490 -0.677534 0.001380 
-2.457478 -2.236083 3.177641 -0.735490 -0.677534 0.001380 
-2.494830 -2.195676 -1.278461 -0.735490 -0.677534 0.001380 
-2.480119 -2.211590 -0.111638 -0.735490 -0.677534 0.001380 
-2.511349 -2.177806 2.975162 -0.735490 -0.677534 0.001380 
-2.466193 -2.226655 0.146182 -0.735490 -0.677534 0.001380 
-2.428287 -2.267663 2.445490 -0.735490 -0.677534 0.001380 
-2.468188 -2.224497 1.894933 -0.735490 -0.677534 0.001380 
-2.528090 -2.159696 -3.991181 -0.735490 -0.677534 0.001380 
-2.483980 -2.207414 1.675329 -0.735490 -0.677534 0.001380 
-2.392120 -2.306787 -2.193366 -0.735490 -0.677534 0.001380 
-2.367386 -2.333544 -4.779725 -0.735490 -0.677534 0.001380 
-2.490088 -2.200806 -4.012675 -0.735490 -0.677534 0.001380 
-2.397422 -2.301052 -0.607730 -0.735490 -0.677534 0.001380 
-2.435273 -2.260105 -0.018029 -0.735490 -0.677534 0.001380 
-2.481865 -2.209702 -4.237506 -0.735490 -0.677534 0.001380 
-2.454077 -2.239763 -4.537095 -0.735490 -0.677534 0.001380 
-2.459350 -2.234058 -5.252688 -0.735490 -0.677534 0.001380 
-2.363216 -2.338056 -4.842921 -0.735490 -0.677534 0.001380 
-2.418243 -2.278528 -4.652330 -0.735490 -0.677534 0.001380 
-2.415884 -2.281079 -4.206363 -0.735490 -0.677534 0.001380 
-2.470185 -2.222337 -2.008786 -0.735490 -0.677534 0.001380 
-2.388135 -2.311098 -0.196148 -0.735490 -0.677534 0.001380 
-2.369688 -2.331054 0.763612 -0.735490 -0.677534 0.001380 
-2.409805 -2.287656 -2.330137 -0.735490 -0.677534 0.001380 
-2.365041 -2.336081 -2.293783 -0.735490 -0.677534 0.001380 
-2.454167 -2.239666 -1.125094 -0.735490 -0.677534 0.001380 
-2.436559 -2.258714 -2.294009 -0.735490 -0.677534 0.001380 
-2.456608 -2.237024 -2.870513 -0.735490 -0.677534 0.001380 
-2.412217 -2.285047 -2.384136 -0.735490 -0.677534 0.001380 
-2.422527 -2.273894 -0.046946 -0.735490 -0.677534 0.001380 
-2.371034 -2.329598 3.096935 -0.735490 -0.677534 0.001380 
-2.387791 -2.311471 2.513737 -0.735490 -0.677534 0.001380 
-2.354233 -2.347774 -2.497239 -0.735490 -0.677534 0.001380 
-2.444822 -2.249774 -4.505246 -0.735490 -0.677534 0.001380 
-2.361808 -2.339580 -5.279108 -0.735490 -0.677534 0.001380 
-2.489086 -2.201890 -4.515277 -0.735490 -0.677534 0.001380 
-2.411362 -2.285972 -3.741690 -0.735490 -0.677534 0.001380 
-2.414273 -2.282823 0.082539 -0.735490 -0.677534 0.001380 
-2.455881 -2.237812 -1.654046 -0.735490 -0.677534 0.001380 
-2.406194 -2.291562 0.346432 -0.735490 -0.677534 0.001380 
-2.385865 -2.313554 -3.841381 -0.735490 -0.677534 0.001380 
-2.371147 -2.329476 -2.812810 -0.735490 -0.677534 0.001380 
-2.365551 -2.335530 3.574287 -0.735490 -0.677534 0.001380 
-2.388977 -2.310188 -4.152704 -0.735490 -0.677534 0.001380 
-2.410964 -2.286402 -3.559604 -0.735490 -0.677534 0.001380 
-2.408035 -2.289570 -5.120901 -0.735490 -0.677534 0.001380 
-2.443065 -2.251676 -1.436327 -0.735490 -0.677534 0.001380 
-2.387453 -2.311836 -1.889716 -0.735490 -0.677534 0.001380 
-2.386162 -2.313233 2.399665 -0.735490 -0.677534 0.001380 
-2.366796 -2.334183 -1.354184 -0.735490 -0.677534 0.001380 
-2.174752 -2.514172 -4.851826 -0.677534 -0.735490 0.001380 
-2.181943 -2.507525 -0.765198 -0.677534 -0.735490 0.001380 
-2.208062 -2.483381 1.099347 -0.677534 -0.735490 0.001380 
-2.200750 -2.490140 -1.527417 -0.677534 -0.735490 0.001380 
-2.298110 -2.400141 -2.519360 -0.677534 -0.735490 0.001380 
-2.211282 -2.480404 -2.367565 -0.677534 -0.735490 0.001380 
-2.208200 -2.483253 -1.982638 -0.677534 -0.735490 0.001380 
-2.165605 -2.522628 0.463679 -0.677534 -0.735490 0.001380 
-2.337541 -2.363692 -5.267190 -0.677534 -0.735490 0.001380 
-2.317429 -2.382284 -4.914426 -0.677534 -0.735490 0.001380 
-2.211388 -2.480307 -3.442499 -0.677534 -0.735490 0.001380 
-2.172604 -2.516158 -3.036097 -0.677534 -0.735490 0.001380 
-2.162260 -2.525720 0.002464 -0.677534 -0.735490 0.001380 
-2.174733 -2.514189 2.659715 -0.677534 -0.735490 0.001380 
-2.274211 -2.422233 -3.594002 -0.677534 -0.735490 0.001380 
-2.215596 -2.476416 -2.811939 -0.677534 -0.735490 0.001380 
-2.185455 -2.504278 -4.306683 -0.677534 -0.735490 0.001380 
-2.183916 -2.505701 0.748274 -0.677534 -0.735490 0.001380 
-2.268121 -2.427863 -2.243887 -0.677534 -0.735490 0.001380 
-2.254908 -2.440077 -4.578120 -0.677534 -0.735490 0.001380 
-2.203130 -2.487939 -2.985572 -0.677534 -0.735490 0.001380 
-2.246986 -2.447400 -0.607324 -0.677534 -0.735490 0.001380 
-2.183166 -2.506394 1.488932 -0.677534 -0.735490 0.001380 
-2.226948 -2.465923 0.669048 -0.677534 -0.735490 0.001380 
-2.189583 -2.500462 1.795346 -0.677534 -0.735490 0.001380 
-2.194281 -2.496120 -3.408915 -0.677534 -0.735490 0.001380 
-2.258626 -2.436640 -2.672221 -0.677534 -0.735490 0.001380 
-2.176174 -2.512857 -3.526359 -0.677534 -0.735490 0.001380 
-2.217036 -2.475085 -0.291643 -0.677534 -0.735490 0.001380 
-2.215779 -2.476248 -0.949737 -0.677534 -0.735490 0.001380 
-2.252849 -2.441980 -4.186450 -0.677534 -0.735490 0.001380 
-2.273659 -2.422744 -4.360848 -0.677534 -0.735490 0.001380 
-2.247860 -2.446592 -2.182236 -0.677534 -0.735490 0.001380 
-2.190828 -2.499312 2.533241 -0.677534 -0.735490 0.001380 
-2.297172 -2.401008 -4.707645 -0.677534 -0.735490 0.001380 
-2.172920 -2.515865 -4.986949 -0.677534 -0.735490 0.001380 
-2.224923 -2.467795 -4.803703 -0.677534 -0.735490 0.001380 
-2.202888 -2.488164 -1.321424 -0.677534 -0.735490 0.001380 
-2.183017 -2.506532 3.701936 -0.677534 -0.735490 0.001380 
-2.189307 -2.500718 -1.797735 -0.677534 -0.735490 0.001380 
-2.208860 -2.482643 0.492520 -0.677534 -0.735490 0.001380 
-2.266644 -2.429228 4.010933 -0.677534 -0.735490 0.001380 
-2.264142 -2.431542 4.764061 -0.677534 -0.735490 0.001380 
-2.332333 -2.368506 3.022886 -0.677534 -0.735490 0.001380 
-2.277404 -2.419282 0.547191 -0.677534 -0.735490 0.001380 
-2.262020 -2.433503 4.950311 -0.677534 -0.735490 0.001380 
-2.300504 -2.397928 -0.316275 -0.677534 -0.735490 0.001380 
-2.272165 -2.424125 1.054810 -0.677534 -0.735490 0.001380 
-2.346973 -2.354973 3.826181 -0.677534 -0.735490 0.001380 
-2.346170 -2.355715 -0.733146 -0.677534 -0.735490 0.001380 
-2.271525 -2.424716 3.871402 -0.677534 -0.735490 0.001380 
-2.332357 -2.368484 1.778392 -0.677534 -0.735490 0.001380 
-2.260171 -2.435211 5.006344 -0.677534 -0.735490 0.001380 
-2.326192 -2.374183 -2.279024 -0.677534 -0.735490 0.001380 
-2.272248 -2.424048 1.801596 -0.677534 -0.735490 0.001380 
-2.317019 -2.382662 -1.180881 -0.677534 -0.735490 0.001380 
-2.284055 -2.413133 -0.373459 -0.677534 -0.735490 0.001380 
-2.333011 -2.367879 -0.077705 -0.677534 -0.735490 0.001380 
-2.239856 -2.453991 3.156264 -0.677534 -0.735490 0.001380 
-2.307872 -2.391117 4.174245 -0.677534 -0.735490 0.001380 
-2.241062 -2.452876 4.210308 -0.677534 -0.735490 0.001380 
-2.256862 -2.438271 0.900929 -0.677534 -0.735490 0.001380 
-2.321410 -2.378603 0.115926 -0.677534 -0.735490 0.001380 
-2.325029 -2.375258 0.787104 -0.677534 -0.735490 0.001380 
-2.325738 -2.374602 -0.550915 -0.677534 -0.735490 0.001380 
-2.292028 -2.405763 2.505028 -0.677534 -0.735490 0.001380 
-2.294134 -2.403816 3.160675 -0.677534 -0.735490 0.001380 
-2.319932 -2.379969 -2.426319 -0.677534 -0.735490 0.001380 
-2.291840 -2.405937 5.180457 -0.677534 -0.735490 0.001380 
-2.312647 -2.386703 -2.252349 -0.677534 -0.735490 0.001380 
-2.252611 -2.442200 3.478433 -0.677534 -0.735490 0.001380 
-2.224322 -2.468351 4.881127 -0.677534 -0.735490 0.001380 
-2.273472 -2.422916 2.415020 -0.677534 -0.735490 0.001380 
-2.305082 -2.393696 -1.350418 -0.677534 -0.735490 0.001380 
-2.334046 -2.366923 -3.779794 -0.677534 -0.735490 0.001380 
-2.313564 -2.385855 1.172785 -0.677534 -0.735490 0.001380 
-2.276189 -2.420405 -0.587200 -0.677534 -0.735490 0.001380 
-2.334992 -2.366048 4.888276 -0.677534 -0.735490 0.001380 
-2.310085 -2.389072 -2.421012 -0.677534 -0.735490 0.001380 
-2.320471 -2.379471 1.611939 -0.677534 -0.735490 0.001380 
-2.248930 -2.445603 4.040164 -0.677534 -0.735490 0.001380 
-2.242747 -2.451318 5.267836 -0.677534 -0.735490 0.001380 
-2.059091 -2.607438 -3.006130 -0.618487 -0.785794 0.001371 
-2.009262 -2.646721 -1.658380 -0.618487 -0.785794 0.001371 
-2.082724 -2.588808 -4.365207 -0.618487 -0.785794 0.001371 
-2.054125 -2.611353 -3.985818 -0.618487 -0.785794 0.001371 
-2.022629 -2.636183 -2.419333 -0.618487 -0.785794 0.001371 
-2.096899 -2.577633 -4.900469 -0.618487 -0.785794 0.001371 
-2.034320 -2.626967 0.232667 -0.618487 -0.785794 0.001371 
-2.067599 -2.600731 -1.845324 -0.618487 -0.785794 0.001371 
-2.069987 -2.598849 -1.856734 -0.618487 -0.785794 0.001371 
-1.965215 -2.681445 -4.076806 -0.618487 -0.785794 0.001371 
-1.986313 -2.664812 0.712469 -0.618487 -0.785794 0.001371 
-2.069667 -2.599102 -4.374812 -0.618487 -0.785794 0.001371 
-1.968498 -2.678856 -1.595737 -0.618487 -0.785794 0.001371 
-2.018400 -2.639517 -0.162933 -0.618487 -0.785794 0.001371 
-1.990413 -2.661580 -5.025766 -0.618487 -0.785794 0.001371 
-2.100693 -2.574642 -3.777597 -0.618487 -0.785794 0.001371 
-1.984167 -2.666504 -4.086257 -0.618487 -0.785794 0.001371 
-2.029575 -2.630707 -2.149458 -0.618487 -0.785794 0.001371 
-2.114510 -2.563750 -4.690379 -0.618487 -0.785794 0.001371 
-1.971563 -2.676440 3.995485 -0.618487 -0.785794 0.001371 
-2.014564 -2.642541 -1.314180 -0.618487 -0.785794 0.001371 
-1.995804 -2.657330 1.029969 -0.618487 -0.785794 0.001371 
-2.040359 -2.622205 -0.959863 -0.618487 -0.785794 0.001371 
-2.014802 -2.642353 -0.004819 -0.618487 -0.785794 0.001371 
-1.973459 -2.674946 -4.029388 -0.618487 -0.785794 0.001371 
-2.026903 -2.632813 1.038468 -0.618487 -0.785794 0.001371 
-2.039540 -2.622852 0.817800 -0.618487 -0.785794 0.001371 
-1.969208 -2.678296 -0.883673 -0.618487 -0.785794 0.001371 
-2.021452 -2.637111 0.855715 -0.618487 -0.785794 0.001371 
-2.016886 -2.640710 -1.210645 -0.618487 -0.785794 0.001371 
-1.976532 -2.672523 1.004625 -0.618487 -0.785794 0.001371 
-2.014582 -2.642527 -0.141882 -0.618487 -0.785794 0.001371 
-2.046355 -2.617480 -1.236638 -0.618487 -0.785794 0.001371 
-1.991149 -2.661000 0.438886 -0.618487 -0.785794 0.001371 
-1.993154 -2.659419 -4.254069 -0.618487 -0.785794 0.001371 
-2.010380 -2.645839 -1.345583 -0.618487 -0.785794 0.001371 
-1.974109 -2.674433 -3.536460 -0.618487 -0.785794 0.001371 
-2.016308 -2.641166 0.079381 -0.618487 -0.785794 0.001371 
-2.018777 -2.639220 1.243760 -0.618487 -0.785794 0.001371 
-2.021496 -2.637076 -3.202393 -0.618487 -0.785794 0.001371 
-2.043832 -2.619467 -4.431118 -0.618487 -0.785794 0.001371 
-1.997417 -2.656059 4.724784 -0.618487 -0.785794 0.001371 
-2.128679 -2.552580 -2.340667 -0.618487 -0.785794 0.001371 
-2.141220 -2.542693 3.441209 -0.618487 -0.785794 0.001371 
-2.124908 -2.555552 4.701823 -0.618487 -0.785794 0.001371 
-2.053354 -2.611962 4.001449 -0.618487 -0.785794 0.001371 
-2.128381 -2.552815 -3.161886 -0.618487 -0.785794 0.001371 
-2.044377 -2.619038 1.441161 -0.618487 -0.785794 0.001371 
-1.964459 -2.682041 4.892789 -0.618487 -0.785794 0.001371 
-2.059980 -2.606738 2.826942 -0.618487 -0.785794 0.001371 
-2.030666 -2.629847 1.603615 -0.618487 -0.785794 0.001371 
-2.053119 -2.612146 1.983505 -0.618487 -0.785794 0.001371 
-2.047059 -2.616924 2.452243 -0.618487 -0.785794 0.001371 
-2.154335 -2.532354 -1.143593 -0.618487 -0.785794 0.001371 
-2.055393 -2.610353 3.371587 -0.618487 -0.785794 0.001371 
-2.127794 -2.553277 2.518970 -0.618487 -0.785794 0.001371 
-2.096611 -2.577861 3.558759 -0.618487 -0.785794 0.001371 
-2.112814 -2.565087 1.963605 -0.618487 -0.785794 0.001371 
-1.989079 -2.662632 5.010983 -0.618487 -0.785794 0.001371 
-2.046347 -2.617486 2.692839 -0.618487 -0.785794 0.001371 
-2.140386 -2.543351 5.236593 -0.618487 -0.785794 0.001371 
-2.132435 -2.549619 -2.646021 -0.618487 -0.785794 0.001371 
-2.149914 -2.535840 5.269031 -0.618487 -0.785794 0.001371 
-2.135026 -2.547576 2.840318 -0.618487 -0.785794 0.001371 
-2.071916 -2.597328 4.517185 -0.618487 -0.785794 0.001371 
-2.053799 -2.611610 0.996409 -0.618487 -0.785794 0.001371 
-2.049654 -2.614878 3.707829 -0.618487 -0.785794 0.001371 
-2.123518 -2.556649 0.980838 -0.618487 -0.785794 0.001371 
-2.139844 -2.543778 4.300899 -0.618487 -0.785794 0.001371 
-2.117864 -2.561106 0.363393 -0.618487 -0.785794 0.001371 
-2.046141 -2.617648 1.031629 -0.618487 -0.785794 0.001371 
-2.077477 -2.592944 5.180668 -0.618487 -0.785794 0.001371 
-2.014484 -2.642604 4.527964 -0.618487 -0.785794 0.001371 
-2.078334 -2.592268 1.660327 -0.618487 -0.785794 0.001371 
-2.144644 -2.539994 4.891232 -0.618487 -0.785794 0.001371 
-2.133073 -2.549116 -0.531063 -0.618487 -0.785794 0.001371 
-2.059188 -2.607362 4.082932 -0.618487 -0.785794 0.001371 
-2.152822 -2.533547 3.495917 -0.618487 -0.785794 0.001371 
-2.117886 -2.561089 3.300166 -0.618487 -0.785794 0.001371 
-2.155385 -2.531526 0.006943 -0.618487 -0.785794 0.001371 
-2.053891 -2.611538 0.411233 -0.618487 -0.785794 0.001371 
-2.078787 -2.591911 -0.207282 -0.618487 -0.785794 0.001371 
-1.740130 -2.833143 2.484332 -0.556887 -0.830587 0.001355 
-1.859357 -2.753478 -3.614420 -0.556887 -0.830587 0.001355 
-1.908014 -2.720966 -5.311756 -0.556887 -0.830587 0.001355 
-1.743065 -2.831182 0.462907 -0.556887 -0.830587 0.001355 
-1.772777 -2.811328 3.520399 -0.556887 -0.830587 0.001355 
-1.944581 -2.696533 -5.101624 -0.556887 -0.830587 0.001355 
-1.827152 -2.774997 0.414373 -0.556887 -0.830587 0.001355 
-1.784217 -2.803684 -0.802671 -0.556887 -0.830587 0.001355 
-1.830845 -2.772529 -1.594290 -0.556887 -0.830587 0.001355 
-1.867321 -2.748156 -5.172288 -0.556887 -0.830587 0.001355 
-1.833822 -2.770540 -2.833573 -0.556887 -0.830587 0.001355 
-1.776454 -2.808872 -5.139713 -0.556887 -0.830587 0.001355 
-1.776792 -2.808646 -1.095948 -0.556887 -0.830587 0.001355 
-1.852667 -2.757948 -4.181956 -0.556887 -0.830587 0.001355 
-1.802421 -2.791521 -0.873504 -0.556887 -0.830587 0.001355 
-1.797144 -2.795047 -0.274462 -0.556887 -0.830587 0.001355 
-1.777477 -2.808188 0.184725 -0.556887 -0.830587 0.001355 
-1.800946 -2.792507 1.385154 -0.556887 -0.830587 0.001355 
-1.801627 -2.792051 -1.101041 -0.556887 -0.830587 0.001355 
-1.739418 -2.833619 1.782589 -0.556887 -0.830587 0.001355 
-1.749975 -2.826565 -3.275725 -0.556887 -0.830587 0.001355 
-1.749718 -2.826736 -1.779800 -0.556887 -0.830587 0.001355 
-1.779084 -2.807114 2.125801 -0.556887 -0.830587 0.001355 
-1.933550 -2.703904 -4.915063 -0.556887 -0.830587 0.001355 
-1.810127 -2.786372 -4.688399 -0.556887 -0.830587 0.001355 
-1.836047 -2.769053 -5.095776 -0.556887 -0.830587 0.001355 
-1.773269 -2.810999 -0.790660 -0.556887 -0.830587 0.001355 
-1.772957 -2.811208 -1.643674 -0.556887 -0.830587 0.001355 
-1.800321 -2.792924 -0.355598 -0.556887 -0.830587 0.001355 
-1.910396 -2.719374 -3.319867 -0.556887 -0.830587 0.001355 
-1.828977 -2.773777 -4.329971 -0.556887 -0.830587 0.001355 
-1.807412 -2.788186 -2.275879 -0.556887 -0.830587 0.001355 
-1.808014 -2.787784 -5.285761 -0.556887 -0.830587 0.001355 
-1.807018 -2.788450 -2.588289 -0.556887 -0.830587 0.001355 
-1.746889 -2.828626 -0.664145 -0.556887 -0.830587 0.001355 
-1.783645 -2.804067 2.996643 -0.556887 -0.830587 0.001355 
-1.900957 -2.725682 -5.311880 -0.556887 -0.830587 0.001355 
-1.800640 -2.792711 -3.872144 -0.556887 -0.830587 0.001355 
-1.845834 -2.762514 -1.358055 -0.556887 -0.830587 0.001355 
-1.897807 -2.727787 -4.105791 -0.556887 -0.830587 0.001355 
-1.767547 -2.814823 -4.375535 -0.556887 -0.830587 0.001355 
-1.641256 -2.888820 -2.137624 -0.487672 -0.873026 0.001329 
-1.701393 -2.855142 -0.200316 -0.487672 -0.873026 0.001329 
-1.734710 -2.836483 0.515291 -0.487672 -0.873026 0.001329 
-1.646559 -2.885850 0.255699 -0.487672 -0.873026 0.001329 
-1.672006 -2.871599 -3.404764 -0.487672 -0.873026 0.001329 
-1.728311 -2.840067 1.179020 -0.487672 -0.873026 0.001329 
-1.712787 -2.848761 -2.979333 -0.487672 -0.873026 0.001329 
-1.688059 -2.862609 2.378725 -0.487672 -0.873026 0.001329 
-1.564275 -2.931931 -3.675701 -0.487672 -0.873026 0.001329 
-1.637598 -2.890868 -5.277801 -0.487672 -0.873026 0.001329 
-1.629712 -2.895285 -0.047980 -0.487672 -0.873026 0.001329 
-1.637424 -2.890966 -0.562941 -0.487672 -0.873026 0.001329 
-1.648066 -2.885006 -0.992956 -0.487672 -0.873026 0.001329 
-1.618461 -2.901586 -1.284340 -0.487672 -0.873026 0.001329 
-1.680868 -2.866636 -3.791648 -0.487672 -0.873026 0.001329 
-1.684451 -2.864629 -0.748717 -0.487672 -0.873026 0.001329 
-1.657966 -2.879462 -3.377330 -0.487672 -0.873026 0.001329 
-1.581642 -2.922205 -4.205506 -0.487672 -0.873026 0.001329 
-1.729829 -2.839217 -4.791457 -0.487672 -0.873026 0.001329 
-1.718085 -2.845794 -1.221509 -0.487672 -0.873026 0.001329 
-1.592402 -2.916180 -3.401741 -0.487672 -0.873026 0.001329 
-1.727210 -2.840683 -0.099629 -0.487672 -0.873026 0.001329 
-1.606819 -2.908105 -2.588871 -0.487672 -0.873026 0.001329 
-1.650604 -2.883585 -3.621153 -0.487672 -0.873026 0.001329 
-1.682700 -2.865610 -3.669905 -0.487672 -0.873026 0.001329 
-1.653058 -2.882211 -1.589733 -0.487672 -0.873026 0.001329 
-1.684737 -2.864469 0.171529 -0.487672 -0.873026 0.001329 
-1.633632 -2.893090 -4.344197 -0.487672 -0.873026 0.001329 
-1.664268 -2.875933 -5.191304 -0.487672 -0.873026 0.001329 
-1.724715 -2.842081 3.001603 -0.487672 -0.873026 0.001329 
-1.707453 -2.851748 2.015525 -0.487672 -0.873026 0.001329 
-1.662420 -2.876967 1.647914 -0.487672 -0.873026 0.001329 
-1.692023 -2.860389 2.633361 -0.487672 -0.873026 0.001329 
-1.631324 -2.894382 -4.945745 -0.487672 -0.873026 0.001329 
-1.724898 -2.841978 1.362134 -0.487672 -0.873026 0.001329 
-1.625635 -2.897568 -1.073630 -0.487672 -0.873026 0.001329 
-1.700214 -2.855802 -3.422406 -0.487672 -0.873026 0.001329 
-1.706694 -2.852173 0.408923 -0.487672 -0.873026 0.001329 
-1.551467 -2.939104 -4.915143 -0.487672 -0.873026 0.001329 
-1.733424 -2.837204 5.018595 -0.487672 -0.873026 0.001329 
-1.619262 -2.901137 -3.265332 -0.487672 -0.873026 0.001329 
-1.939917 -2.699650 2.033667 -0.556887 -0.830587 0.001355 
-1.866387 -2.748780 1.122549 -0.556887 -0.830587 0.001355 
-1.818542 -2.780749 2.228035 -0.556887 -0.830587 0.001355 
-1.954256 -2.690068 1.060887 -0.556887 -0.830587 0.001355 
-1.917550 -2.714594 -2.462618 -0.556887 -0.830587 0.001355 
-1.932383 -2.704684 2.456122 -0.556887 -0.830587 0.001355 
-1.924185 -2.710161 2.305090 -0.556887 -0.830587 0.001355 
-1.848485 -2.760742 2.761514 -0.556887 -0.830587 0.001355 
-1.804643 -2.790037 4.637415 -0.556887 -0.830587 0.001355 
-1.941864 -2.698348 1.886120 -0.556887 -0.830587 0.001355 
-1.922488 -2.711295 -0.705410 -0.556887 -0.830587 0.001355 
-1.924575 -2.709900 2.062236 -0.556887 -0.830587 0.001355 
-1.864744 -2.749878 -0.358083 -0.556887 -0.830587 0.001355 
-1.808105 -2.787723 3.818964 -0.556887 -0.830587 0.001355 
-1.838005 -2.767744 4.548412 -0.556887 -0.830587 0.001355 
-1.947749 -2.694416 -4.651842 -0.556887 -0.830587 0.001355 
-1.867463 -2.748061 0.198633 -0.556887 -0.830587 0.001355 
-1.914436 -2.716676 -1.892044 -0.556887 -0.830587 0.001355 
-1.830632 -2.772671 4.071291 -0.556887 -0.830587 0.001355 
-1.910625 -2.719222 -1.359740 -0.556887 -0.830587 0.001355 
-1.920881 -2.712369 0.218056 -0.556887 -0.830587 0.001355 
-1.952386 -2.691318 -1.780365 -0.556887 -0.830587 0.001355 
-1.878181 -2.740900 -0.901933 -0.556887 -0.830587 0.001355 
-1.904597 -2.723250 -2.008027 -0.556887 -0.830587 0.001355 
-1.933352 -2.704036 -0.936226 -0.556887 -0.830587 0.001355 
-1.805830 -2.789243 4.337020 -0.556887 -0.830587 0.001355 
-1.939201 -2.700128 -2.088805 -0.556887 -0.830587 0.001355 
-1.813833 -2.783896 2.336015 -0.556887 -0.830587 0.001355 
-1.798005 -2.794472 2.800980 -0.556887 -0.830587 0.001355 
-1.925791 -2.709088 -2.986497 -0.556887 -0.830587 0.001355 
-1.861404 -2.752110 5.108186 -0.556887 -0.830587 0.001355 
-1.938548 -2.700564 -2.122716 -0.556887 -0.830587 0.001355 
-1.834610 -2.770013 4.922979 -0.556887 -0.830587 0.001355 
-1.775360 -2.809602 3.793095 -0.556887 -0.830587 0.001355 
-1.935278 -2.702749 -1.818037 -0.556887 -0.830587 0.001355 
-1.939069 -2.700216 -0.600943 -0.556887 -0.830587 0.001355 
-1.888958 -2.733699 0.939211 -0.556887 -0.830587 0.001355 
-1.791010 -2.799146 4.967960 -0.556887 -0.830587 0.001355 
-1.785648 -2.802728 3.099717 -0.556887 -0.830587 0.001355 
-1.898044 -2.727628 1.415504 -0.556887 -0.830587 0.001355 
-1.910540 -2.719279 5.179255 -0.556887 -0.830587 0.001355 
-1.544363 -2.943083 1.682592 -0.487672 -0.873026 0.001329 
-1.568818 -2.929388 2.378009 -0.487672 -0.873026 0.001329 
-1.674133 -2.870408 4.684758 -0.487672 -0.873026 0.001329 
-1.516677 -2.958588 3.517043 -0.487672 -0.873026 0.001329 
-1.561035 -2.933746 -1.746347 -0.487672 -0.873026 0.001329 
-1.591578 -2.916641 2.378968 -0.487672 -0.873026 0.001329 
-1.576752 -2.924944 3.990655 -0.487672 -0.873026 0.001329 
-1.589091 -2.918034 0.134600 -0.487672 -0.873026 0.001329 
-1.593908 -2.915336 0.603754 -0.487672 -0.873026 0.001329 
-1.655034 -2.881104 4.776375 -0.487672 -0.873026 0.001329 
-1.522889 -2.955109 -1.105612 -0.487672 -0.873026 0.001329 
-1.543881 -2.943352 1.354688 -0.487672 -0.873026 0.001329 
-1.587760 -2.918779 2.193033 -0.487672 -0.873026 0.001329 
-1.641113 -2.888900 1.048016 -0.487672 -0.873026 0.001329 
-1.673866 -2.870558 2.577976 -0.487672 -0.873026 0.001329 
-1.535661 -2.947956 3.981030 -0.487672 -0.873026 0.001329 
-1.611716 -2.905363 1.819950 -0.487672 -0.873026 0.001329 
-1.617086 -2.902356 3.718288 -0.487672 -0.873026 0.001329 
-1.590580 -2.917200 0.139691 -0.487672 -0.873026 0.001329 
-1.622522 -2.899312 4.138082 -0.487672 -0.873026 0.001329 
-1.517134 -2.958332 -3.931178 -0.487672 -0.873026 0.001329 
-1.568339 -2.929656 0.836421 -0.487672 -0.873026 0.001329 
-1.562065 -2.933169 -2.202080 -0.487672 -0.873026 0.001329 
-1.629172 -2.895587 3.563877 -0.487672 -0.873026 0.001329 
-1.563877 -2.932155 2.001903 -0.487672 -0.873026 0.001329 
-1.533869 -2.948959 -3.073757 -0.487672 -0.873026 0.001329 
-1.530112 -2.951064 -3.450533 -0.487672 -0.873026 0.001329 
-1.638905 -2.890137 2.693010 -0.487672 -0.873026 0.001329 
-1.540557 -2.945214 2.101137 -0.487672 -0.873026 0.001329 
-1.588012 -2.918638 -1.540408 -0.487672 -0.873026 0.001329 
-1.509670 -2.962512 3.950409 -0.487672 -0.873026 0.001329 
-1.602868 -2.910318 0.818755 -0.487672 -0.873026 0.001329 
-1.607237 -2.907871 5.300154 -0.487672 -0.873026 0.001329 
-1.656223 -2.880438 2.335102 -0.487672 -0.873026 0.001329 
-1.623572 -2.898724 1.814814 -0.487672 -0.873026 0.001329 
-1.521858 -2.955686 -1.525306 -0.487672 -0.873026 0.001329 
-1.546312 -2.941991 -0.016999 -0.487672 -0.873026 0.001329 
-1.563975 -2.932099 -1.762381 -0.487672 -0.873026 0.001329 
-1.533362 -2.949244 1.021127 -0.487672 -0.873026 0.001329 
-1.681082 -2.866516 4.391778 -0.487672 -0.873026 0.001329 
-1.601055 -2.911334 -0.768798 -0.487672 -0.873026 0.001329 
-1.292681 -3.062560 -0.001328 -0.418483 -0.908224 0.001296 
-1.408902 -3.008981 -1.565355 -0.418483 -0.908224 0.001296 
-1.286214 -3.065542 -0.271950 -0.418483 -0.908224 0.001296 
-1.355978 -3.033380 -1.803426 -0.418483 -0.908224 0.001296 
-1.477217 -2.977488 -5.150806 -0.418483 -0.908224 0.001296 
-1.325392 -3.047480 -2.868968 -0.418483 -0.908224 0.001296 
-1.325464 -3.047447 -3.129048 -0.418483 -0.908224 0.001296 
-1.400455 -3.012876 -1.933820 -0.418483 -0.908224 0.001296 
-1.396229 -3.014824 -5.126042 -0.418483 -0.908224 0.001296 
-1.441537 -2.993936 -5.198783 -0.418483 -0.908224 0.001296 
-1.376205 -3.024055 -0.578591 -0.418483 -0.908224 0.001296 
-1.353900 -3.034338 -3.704246 -0.418483 -0.908224 0.001296 
-1.438830 -2.995184 -2.180285 -0.418483 -0.908224 0.001296 
-1.347734 -3.037180 -2.206832 -0.418483 -0.908224 0.001296 
-1.291700 -3.063012 0.674364 -0.418483 -0.908224 0.001296 
-1.368305 -3.027697 0.855996 -0.418483 -0.908224 0.001296 
-1.311064 -3.054085 -0.029716 -0.418483 -0.908224 0.001296 
-1.396491 -3.014703 -0.739821 -0.418483 -0.908224 0.001296 
-1.333131 -3.043912 -4.732904 -0.418483 -0.908224 0.001296 
-1.396594 -3.014655 -1.494228 -0.418483 -0.908224 0.001296 
-1.296987 -3.060575 3.209258 -0.418483 -0.908224 0.001296 
-1.328160 -3.046204 1.462467 -0.418483 -0.908224 0.001296 
-1.385374 -3.019828 -3.270709 -0.418483 -0.908224 0.001296 
-1.304504 -3.057110 3.868489 -0.418483 -0.908224 0.001296 
-1.411508 -3.007780 -2.123267 -0.418483 -0.908224 0.001296 
-1.363879 -3.029737 0.036849 -0.418483 -0.908224 0.001296 
-1.384929 -3.020033 -4.732148 -0.418483 -0.908224 0.001296 
-1.309369 -3.054867 -2.053984 -0.418483 -0.908224 0.001296 
-1.341405 -3.040098 -1.541701 -0.418483 -0.908224 0.001296 
-1.355600 -3.033554 1.479943 -0.418483 -0.908224 0.001296 
-1.276735 -3.069911 -1.930482 -0.418483 -0.908224 0.001296 
-1.370148 -3.026847 0.101291 -0.418483 -0.908224 0.001296 
-1.319510 -3.050192 2.732415 -0.418483 -0.908224 0.001296 
-1.464856 -2.983186 -4.012026 -0.418483 -0.908224 0.001296 
-1.295233 -3.061383 -0.291464 -0.418483 -0.908224 0.001296 
-1.406276 -3.010192 -3.897174 -0.418483 -0.908224 0.001296 
-1.321110 -3.049454 -3.760456 -0.418483 -0.908224 0.001296 
-1.299934 -3.059216 -4.454216 -0.418483 -0.908224 0.001296 
-1.311652 -3.053814 -4.391710 -0.418483 -0.908224 0.001296 
-1.316905 -3.051393 -3.976222 -0.418483 -0.908224 0.001296 
-1.331658 -3.044591 0.591841 -0.418483 -0.908224 0.001296 
-1.084181 -3.141345 -5.093114 -0.344659 -0.938727 0.001253 
-1.211512 -3.094370 -5.049667 -0.344659 -0.938727 0.001253 
-1.085446 -3.140878 -4.174811 -0.344659 -0.938727 0.001253 
-1.242105 -3.083084 -3.579463 -0.344659 -0.938727 0.001253 
-1.075489 -3.144552 -4.080945 -0.344659 -0.938727 0.001253 
-1.249226 -3.080457 -2.891365 -0.344659 -0.938727 0.001253 
-1.214952 -3.093102 1.771353 -0.344659 -0.938727 0.001253 
-1.254916 -3.078358 -3.092555 -0.344659 -0.938727 0.001253 
-1.191659 -3.101695 -0.007681 -0.344659 -0.938727 0.001253 
-1.229890 -3.087590 -4.393099 -0.344659 -0.938727 0.001253 
-1.192756 -3.101290 -0.755618 -0.344659 -0.938727 0.001253 
-1.168647 -3.110184 -3.844911 -0.344659 -0.938727 0.001253 
-1.241980 -3.083130 -0.349584 -0.344659 -0.938727 0.001253 
-1.152107 -3.116286 -4.961828 -0.344659 -0.938727 0.001253 
-1.219982 -3.091245 1.824890 -0.344659 -0.938727 0.001253 
-1.246398 -3.081501 0.413288 -0.344659 -0.938727 0.001253 
-1.102038 -3.134758 -4.377848 -0.344659 -0.938727 0.001253 
-1.189167 -3.102614 0.546658 -0.344659 -0.938727 0.001253 
-1.188026 -3.103035 -3.538739 -0.344659 -0.938727 0.001253 
-1.121262 -3.127666 -2.754806 -0.344659 -0.938727 0.001253 
-1.203975 -3.097151 -3.103334 -0.344659 -0.938727 0.001253 
-1.234758 -3.085794 2.779381 -0.344659 -0.938727 0.001253 
-1.236844 -3.085025 1.903033 -0.344659 -0.938727 0.001253 
-1.268551 -3.073327 0.487897 -0.344659 -0.938727 0.001253 
-1.042418 -3.156752 -4.854203 -0.344659 -0.938727 0.001253 
-1.182394 -3.105113 -2.691331 -0.344659 -0.938727 0.001253 
-1.191030 -3.101927 -4.873508 -0.344659 -0.938727 0.001253 
-1.217141 -3.092294 -3.968501 -0.344659 -0.938727 0.001253 
-1.121731 -3.127493 -4.325138 -0.344659 -0.938727 0.001253 
-1.146336 -3.118415 -3.882125 -0.344659 -0.938727 0.001253 
-1.088444 -3.139773 -3.789933 -0.344659 -0.938727 0.001253 
-1.039924 -3.157673 -5.056905 -0.344659 -0.938727 0.001253 
-1.271852 -3.072110 -2.224333 -0.344659 -0.938727 0.001253 
-1.249732 -3.080271 -1.562701 -0.344659 -0.938727 0.001253 
-1.255400 -3.078179 0.657043 -0.344659 -0.938727 0.001253 
-1.249151 -3.080485 -2.770249 -0.344659 -0.938727 0.001253 
-1.114581 -3.130131 -3.531827 -0.344659 -0.938727 0.001253 
-1.265885 -3.074311 -2.037526 -0.344659 -0.938727 0.001253 
-1.235180 -3.085639 -1.716400 -0.344659 -0.938727 0.001253 
-1.186357 -3.103651 -1.533217 -0.344659 -0.938727 0.001253 
-1.093788 -3.137801 -5.102559 -0.344659 -0.938727 0.001253 
-1.327803 -3.046368 3.989093 -0.418483 -0.908224 0.001296 
-1.498852 -2.967514 1.979055 -0.418483 -0.908224 0.001296 
-1.450040 -2.990017 1.606579 -0.418483 -0.908224 0.001296 
-1.341855 -3.039891 2.503235 -0.418483 -0.908224 0.001296 
-1.444507 -2.992567 3.938945 -0.418483 -0.908224 0.001296 
-1.431137 -2.998731 3.185671 -0.418483 -0.908224 0.001296 
-1.375044 -3.024590 4.322285 -0.418483 -0.908224 0.001296 
-1.432120 -2.998278 0.591143 -0.418483 -0.908224 0.001296 
-1.476087 -2.978009 -0.370031 -0.418483 -0.908224 0.001296 
-1.444190 -2.992713 3.191285 -0.418483 -0.908224 0.001296 
-1.459610 -2.985605 2.957006 -0.418483 -0.908224 0.001296 
-1.498916 -2.967484 2.490149 -0.418483 -0.908224 0.001296 
-1.452443 -2.988909 -2.336979 -0.418483 -0.908224 0.001296 
-1.320053 -3.049942 5.071673 -0.418483 -0.908224 0.001296 
-1.364850 -3.029290 2.531976 -0.418483 -0.908224 0.001296 
-1.495130 -2.969230 -0.084811 -0.418483 -0.908224 0.001296 
-1.474432 -2.978772 4.399022 -0.418483 -0.908224 0.001296 
-1.484611 -2.974079 4.089317 -0.418483 -0.908224 0.001296 
-1.509483 -2.962613 2.891096 -0.418483 -0.908224 0.001296 
-1.468428 -2.981540 3.899625 -0.418483 -0.908224 0.001296 
-1.497447 -2.968162 1.228852 -0.418483 -0.908224 0.001296 
-1.490008 -2.971591 4.061638 -0.418483 -0.908224 0.001296 
-1.416435 -3.005509 -0.411316 -0.418483 -0.908224 0.001296 
-1.444552 -2.992547 0.077421 -0.418483 -0.908224 0.001296 
-1.479608 -2.976385 4.292862 -0.418483 -0.908224 0.001296 
-1.414018 -3.006623 0.921950 -0.418483 -0.908224 0.001296 
-1.502849 -2.965671 3.730396 -0.418483 -0.908224 0.001296 
-1.388605 -3.018338 4.976695 -0.418483 -0.908224 0.001296 
-1.428049 -3.000154 -1.565340 -0.418483 -0.908224 0.001296 
-1.384975 -3.020012 1.932117 -0.418483 -0.908224 0.001296 
-1.441789 -2.993820 0.701542 -0.418483 -0.908224 0.001296 
-1.411896 -3.007601 3.325032 -0.418483 -0.908224 0.001296 
-1.439642 -2.994810 3.181099 -0.418483 -0.908224 0.001296 
-1.433178 -2.997790 4.423470 -0.418483 -0.908224 0.001296 
-1.457639 -2.986513 -0.074539 -0.418483 -0.908224 0.001296 
-1.481871 -2.975343 -0.382970 -0.418483 -0.908224 0.001296 
-1.370623 -3.026628 4.624166 -0.418483 -0.908224 0.001296 
-1.319736 -3.050088 3.781139 -0.418483 -0.908224 0.001296 
-1.497716 -2.968038 -3.984807 -0.418483 -0.908224 0.001296 
-1.435506 -2.996717 1.310803 -0.418483 -0.908224 0.001296 
-1.498843 -2.967518 5.206745 -0.418483 -0.908224 0.001296 
-1.013838 -3.166111 3.853514 -0.271059 -0.962562 0.001205 
-0.807222 -3.224382 -4.504603 -0.271059 -0.962562 0.001205 
-0.853729 -3.211266 -3.800946 -0.271059 -0.962562 0.001205 
-0.848795 -3.212658 -4.134983 -0.271059 -0.962562 0.001205 
-0.992840 -3.172033 -3.343789 -0.271059 -0.962562 0.001205 
-1.012561 -3.166471 2.398740 -0.271059 -0.962562 0.001205 
-0.955375 -3.182599 -2.451846 -0.271059 -0.962562 0.001205 
-0.946039 -3.185232 1.358773 -0.271059 -0.962562 0.001205 
-0.926470 -3.190751 0.016110 -0.271059 -0.962562 0.001205 
-1.005275 -3.168526 -0.596540 -0.271059 -0.962562 0.001205 
-0.901467 -3.197803 -2.232366 -0.271059 -0.962562 0.001205 
-0.822998 -3.219933 -5.065297 -0.271059 -0.962562 0.001205 
-0.948767 -3.184463 -2.484047 -0.271059 -0.962562 0.001205 
-0.958719 -3.181656 -3.095750 -0.271059 -0.962562 0.001205 
-0.988216 -3.173337 -2.438173 -0.271059 -0.962562 0.001205 
-0.994993 -3.171426 0.023436 -0.271059 -0.962562 0.001205 
-1.019202 -3.164598 3.036339 -0.271059 -0.962562 0.001205 
-0.884965 -3.202457 -0.754938 -0.271059 -0.962562 0.001205 
-0.961566 -3.180853 0.083971 -0.271059 -0.962562 0.001205 
-0.976946 -3.176515 0.141063 -0.271059 -0.962562 0.001205 
-1.026532 -3.162530 -4.211902 -0.271059 -0.962562 0.001205 
-1.019223 -3.164592 -1.359079 -0.271059 -0.962562 0.001205 
-0.867261 -3.207450 -4.941302 -0.271059 -0.962562 0.001205 
-1.012480 -3.166494 2.543931 -0.271059 -0.962562 0.001205 
-0.982954 -3.174821 3.139295 -0.271059 -0.962562 0.001205 
-0.978650 -3.176035 0.632770 -0.271059 -0.962562 0.001205 
-0.929741 -3.189828 -4.955264 -0.271059 -0.962562 0.001205 
-0.999180 -3.170244 0.790480 -0.271059 -0.962562 0.001205 
-1.026454 -3.162553 -2.545424 -0.271059 -0.962562 0.001205 
-1.025739 -3.162755 -4.149413 -0.271059 -0.962562 0.001205 
-0.948649 -3.184496 -1.129769 -0.271059 -0.962562 0.001205 
-1.016740 -3.165292 3.258279 -0.271059 -0.962562 0.001205 
-0.929343 -3.189941 -2.382520 -0.271059 -0.962562 0.001205 
-0.897683 -3.198870 -0.963606 -0.271059 -0.962562 0.001205 
-0.917566 -3.193262 -1.402486 -0.271059 -0.962562 0.001205 
-0.997590 -3.170693 -0.675183 -0.271059 -0.962562 0.001205 
-0.996083 -3.171118 -2.335761 -0.271059 -0.962562 0.001205 
-0.880977 -3.203582 -1.325290 -0.271059 -0.962562 0.001205 
-0.846311 -3.213358 -5.311699 -0.271059 -0.962562 0.001205 
-0.823022 -3.219926 -4.624075 -0.271059 -0.962562 0.001205 
-0.920724 -3.192372 -3.845023 -0.271059 -0.962562 0.001205 
-1.120353 -3.128001 3.371273 -0.344659 -0.938727 0.001253 
-1.029250 -3.161610 -5.057897 -0.344659 -0.938727 0.001253 
-1.077717 -3.143730 3.954071 -0.344659 -0.938727 0.001253 
-1.030920 -3.160994 -4.854355 -0.344659 -0.938727 0.001253 
-1.084629 -3.141180 3.620555 -0.344659 -0.938727 0.001253 
-1.129959 -3.124457 4.515014 -0.344659 -0.938727 0.001253 
-1.136346 -3.122100 1.259668 -0.344659 -0.938727 0.001253 
-1.182890 -3.104929 4.858694 -0.344659 -0.938727 0.001253 
-1.038607 -3.158159 -2.058404 -0.344659 -0.938727 0.001253 
-1.078316 -3.143509 2.268030 -0.344659 -0.938727 0.001253 
-1.104481 -3.133856 1.250841 -0.344659 -0.938727 0.001253 
-1.249476 -3.080365 4.950640 -0.344659 -0.938727 0.001253 
-1.104710 -3.133772 -1.929129 -0.344659 -0.938727 0.001253 
-1.101137 -3.135090 3.071286 -0.344659 -0.938727 0.001253 
-1.095127 -3.137307 4.359628 -0.344659 -0.938727 0.001253 
-1.033780 -3.159939 4.691216 -0.344659 -0.938727 0.001253 
-1.200811 -3.098318 3.863455 -0.344659 -0.938727 0.001253 
-1.034019 -3.159851 4.316695 -0.344659 -0.938727 0.001253 
-1.178396 -3.106588 1.538421 -0.344659 -0.938727 0.001253 
-1.075164 -3.144672 -2.324170 -0.344659 -0.938727 0.001253 
-1.178187 -3.106665 5.027901 -0.344659 -0.938727 0.001253 
-1.084403 -3.141263 1.828177 -0.344659 -0.938727 0.001253 
-1.210497 -3.094745 3.780391 -0.344659 -0.938727 0.001253 
-1.034350 -3.159729 3.351920 -0.344659 -0.938727 0.001253 
-1.134684 -3.122714 3.639463 -0.344659 -0.938727 0.001253 
-1.069371 -3.146809 1.581731 -0.344659 -0.938727 0.001253 
-1.046431 -3.155272 0.129066 -0.344659 -0.938727 0.001253 
-1.028336 -3.161948 3.517796 -0.344659 -0.938727 0.001253 
-1.196539 -3.099894 3.240563 -0.344659 -0.938727 0.001253 
-1.059205 -3.150559 -3.515299 -0.344659 -0.938727 0.001253 
-1.040078 -3.157616 2.071829 -0.344659 -0.938727 0.001253 
-1.193374 -3.101062 4.521527 -0.344659 -0.938727 0.001253 
-1.121446 -3.127597 2.219719 -0.344659 -0.938727 0.001253 
-1.078896 -3.143295 -1.638623 -0.344659 -0.938727 0.001253 
-1.047699 -3.154804 2.854528 -0.344659 -0.938727 0.001253 
-1.067796 -3.147390 0.925706 -0.344659 -0.938727 0.001253 
-1.154756 -3.115309 2.827148 -0.344659 -0.938727 0.001253 
-1.066416 -3.147899 0.752692 -0.344659 -0.938727 0.001253 
-1.088399 -3.139789 1.874568 -0.344659 -0.938727 0.001253 
-1.109208 -3.132113 -1.593479 -0.344659 -0.938727 0.001253 
-1.214544 -3.093251 3.402274 -0.344659 -0.938727 0.001253 
-0.965252 -3.179814 4.204547 -0.271059 -0.962562 0.001205 
-0.781322 -3.231687 2.827735 -0.271059 -0.962562 0.001205 
-0.865531 -3.207938 3.589039 -0.271059 -0.962562 0.001205 
-0.927048 -3.190588 4.435392 -0.271059 -0.962562 0.001205 
-0.793840 -3.228157 -4.336751 -0.271059 -0.962562 0.001205 
-0.850956 -3.212048 1.818368 -0.271059 -0.962562 0.001205 
-1.003932 -3.168905 4.503147 -0.271059 -0.962562 0.001205 
-0.826266 -3.219011 -3.111587 -0.271059 -0.962562 0.001205 
-0.978130 -3.176181 4.667605 -0.271059 -0.962562 0.001205 
-0.847656 -3.212979 3.202081 -0.271059 -0.962562 0.001205 
-0.815382 -3.222081 -0.879097 -0.271059 -0.962562 0.001205 
-0.847952 -3.212896 -0.500171 -0.271059 -0.962562 0.001205 
-0.944586 -3.185642 2.013641 -0.271059 -0.962562 0.001205 
-0.810787 -3.223377 2.376188 -0.271059 -0.962562 0.001205 
-0.865077 -3.208066 -0.878035 -0.271059 -0.962562 0.001205 
-0.893447 -3.200065 1.426424 -0.271059 -0.962562 0.001205 
-0.836167 -3.216219 0.093955 -0.271059 -0.962562 0.001205 
-0.916749 -3.193493 3.004204 -0.271059 -0.962562 0.001205 
-0.814340 -3.222375 -3.283297 -0.271059 -0.962562 0.001205 
-0.869479 -3.206824 4.499856 -0.271059 -0.962562 0.001205 
-0.926090 -3.190858 4.930976 -0.271059 -0.962562 0.001205 
-0.805001 -3.225009 1.811328 -0.271059 -0.962562 0.001205 
-0.810852 -3.223359 0.874044 -0.271059 -0.962562 0.001205 
-0.878087 -3.204397 0.283444 -0.271059 -0.962562 0.001205 
-0.942938 -3.186106 4.528662 -0.271059 -0.962562 0.001205 
-0.815903 -3.221934 3.909458 -0.271059 -0.962562 0.001205 
-0.812437 -3.222912 -0.785868 -0.271059 -0.962562 0.001205 
-0.824282 -3.219571 1.301870 -0.271059 -0.962562 0.001205 
-0.828707 -3.218323 -2.274379 -0.271059 -0.962562 0.001205 
-0.888343 -3.201504 1.932013 -0.271059 -0.962562 0.001205 
-0.815876 -3.221942 3.092947 -0.271059 -0.962562 0.001205 
-0.810815 -3.223369 -1.123017 -0.271059 -0.962562 0.001205 
-0.785082 -3.230627 -3.016142 -0.271059 -0.962562 0.001205 
-0.868913 -3.206984 2.168864 -0.271059 -0.962562 0.001205 
-0.841257 -3.214784 -0.566347 -0.271059 -0.962562 0.001205 
-0.871602 -3.206225 1.510886 -0.271059 -0.962562 0.001205 
-0.956156 -3.182379 4.127112 -0.271059 -0.962562 0.001205 
-0.899817 -3.198268 2.078598 -0.271059 -0.962562 0.001205 
-0.869954 -3.206690 5.147321 -0.271059 -0.962562 0.001205 
-0.781039 -3.231767 -0.516556 -0.271059 -0.962562 0.001205 
-1.000470 -3.169881 4.568198 -0.271059 -0.962562 0.001205 
-0.540787 -3.279958 -2.246853 -0.193909 -0.981019 0.001147 
-0.613770 -3.265440 0.218571 -0.193909 -0.981019 0.001147 
-0.594494 -3.269275 -3.217126 -0.193909 -0.981019 0.001147 
-0.664737 -3.255302 -3.055313 -0.193909 -0.981019 0.001147 
-0.545309 -3.279058 -3.030584 -0.193909 -0.981019 0.001147 
-0.693797 -3.249522 -3.845685 -0.193909 -0.981019 0.001147 
-0.624125 -3.263381 -4.978213 -0.193909 -0.981019 0.001147 
-0.555855 -3.276960 -3.031051 -0.193909 -0.981019 0.001147 
